# .PCD v0.7 - Point Cloud Data file format
VERSION 0.7
FIELDS x y z
SIZE 4 4 4
TYPE F F F
COUNT 1 1 1
WIDTH 1793
HEIGHT 1
VIEWPOINT 0 0 0 1 0 0 0
POINTS 1793
DATA ascii
68.778999 -20.349001 0.31
68.82 -20.479 0.34999999
68.289001 -18.759001 1
68.379997 -19.009001 1.03
68.459 -19.229 1.01
68.5 -19.33 1.03
68.198997 -18.530001 0.44999999
68.488998 -19.32 0.52999997
68.690002 -19.849001 0.81999999
68.859001 -20.309 0.69999999
68.918999 -20.49 0.64999998
68.918999 -20.49 0.54000002
67.848999 -17.309 0.43000001
68.338997 -18.649 0.98000002
68.429001 -18.879 1.03
68.478996 -19.018999 1.01
68.539001 -19.188999 1.0599999
68.619003 -19.399 1.09
68.728996 -19.700001 1.0599999
68.768997 -19.799 1.03
68.82 -19.938999 1.04
68.838997 -20.009001 0.94999999
68.908997 -20.179001 0.88999999
68.969002 -20.370001 0.75999999
69.018997 -20.479 0.75
69.058998 -20.589001 0.63999999
69.109001 -20.729 0.67000002
68.5 -18.82 1.03
68.609001 -19.110001 1.12
68.709 -19.379 1.12
68.778999 -19.589001 1.04
68.679001 -19.309 0.67000002
68.658997 -19.24 0.5
68.969002 -20.099001 0.75
69.079002 -20.389 0.77999997
69.190002 -20.700001 0.81999999
69.179001 -20.649 0.75
68.558998 -18.700001 1.0599999
68.619003 -18.870001 1.0599999
68.668999 -19.009001 1.04
68.728996 -19.179001 1.0599999
68.808998 -19.389 1.04
68.848999 -19.5 1.0599999
68.978996 -19.849001 1.04
68.698997 -19.089001 0.28999999
69.028999 -19.979 0.77999997
69.07 -20.110001 0.70999998
69.228996 -20.559 0.77999997
69.238998 -20.58 0.62
68.57 -18.450001 0.98000002
68.658997 -18.709 1.01
68.738998 -18.929001 1.0700001
68.889 -19.339001 1.04
68.929001 -19.459 1.03
68.978996 -19.58 1.0599999
69.058998 -19.799 1.14
69.07 -19.839001 1.0599999
68.82 -19.16 0.62
69.299004 -20.459 0.73000002
68.738998 -18.66 1.0599999
68.889 -19.07 1.0700001
69 -19.360001 1.0700001
69.028999 -19.469 1.09
69.139 -19.75 1.14
69.278999 -20.149 0.73000002
69.348999 -20.349001 0.81
69.418999 -20.530001 0.77999997
69.488998 -20.729 0.85000002
68.75 -18.399 1
68.82 -18.599001 1.04
68.908997 -18.849001 1.03
69 -19.110001 1.03
69.139 -19.5 1.17
69.228996 -19.75 1.12
68.799004 -18.559 0.18000001
68.889 -18.809 0.1
69.399002 -20.229 0.75
69.440002 -20.339001 0.75999999
69.528999 -20.599001 0.75
68.760002 -18.169001 0.92000002
68.889 -18.518999 1.03
69.088997 -19.08 1.12
69.168999 -19.309 1.09
69.209 -19.419001 1.0700001
69.278999 -19.629 1.0700001
69.07 -19.040001 0.5
69.058998 -19 0.34
69.488998 -20.209 0.75999999
69.579002 -20.459 0.81999999
69.57 -20.419001 0.64999998
68.940002 -18.379 1.03
69.010002 -18.58 1.0599999
69.07 -18.75 1.0599999
69.198997 -19.120001 1.12
69.219002 -19.179001 1.04
69.359001 -19.57 1.0599999
69.039001 -18.389 1
69.260002 -19.009001 1.09
69.32 -19.200001 1.0700001
69.379997 -19.349001 1.09
69.418999 -19.459 1.1
69.389 -19.389 1.03
69.228996 -18.938999 0.44999999
69.5 -19.700001 0.70999998
69.539001 -19.809 0.67000002
69.698997 -20.268999 0.81
69.728996 -20.33 0.64999998
69.098999 -18.268999 0.98000002
69.179001 -18.518999 1.04
69.238998 -18.669001 0.98000002
69.399002 -19.149 1.0700001
69.459 -19.290001 1.1
69.359001 -19.018999 0.73000002
69.329002 -18.929001 0.63999999
69.588997 -19.669001 0.79000002
69.738998 -20.099001 0.81
69.82 -20.32 0.83999997
69.789001 -20.24 0.70999998
69.838997 -20.370001 0.73000002
69.369003 -18.790001 1.1
69.639 -19.540001 1.09
69.348999 -18.719 0.23
69.658997 -19.610001 0.77999997
69.690002 -19.688999 0.73000002
69.889 -20.259001 0.75999999
69.109001 -17.759001 0.58999997
69.478996 -18.82 0.98000002
69.609001 -19.188999 1.09
69.649002 -19.290001 1.0700001
69.379997 -18.530001 0.5
69.359001 -18.479 0.2
69.75 -19.57 0.75
69.778999 -19.649 0.73000002
69.829002 -19.799 0.75
69.959 -20.179001 0.87
70.010002 -20.32 0.81
69.959 -20.169001 0.64999998
69.238998 -17.839001 0.64999998
69.408997 -18.339001 0.63999999
69.57 -18.799 0.83999997
69.649002 -19.009001 0.92000002
69.549004 -18.74 0.47999999
69.639 -18.99 0.5
69.629997 -18.950001 0.34999999
69.838997 -19.57 0.69999999
70.010002 -20.059 0.77999997
70.079002 -20.259001 0.83999997
69.75 -19.018999 0.75
69.82 -19.219 0.56
69.899002 -19.459 0.68000001
69.988998 -19.700001 0.75
70.088997 -20 0.87
70.168999 -20.219 0.87
70.158997 -20.188999 0.75
69.869003 -19.099001 0.63999999
69.978996 -19.419001 0.79000002
70.088997 -19.729 0.75
70.219002 -20.110001 0.81
70.158997 -19.66 0.69999999
70.338997 -20.188999 0.77999997
68.549004 -20.809 0.93000001
68.549004 -20.809 0.81
68.5 -20.679001 0.70999998
68.668999 -21.110001 0.050000001
68.228996 -20.259001 1.03
68.209 -20.219 0.92000002
68.119003 -20 0.73000002
67.278999 -18.219 1.1
67.289001 -18.25 1
67.719002 -19.280001 0.73000002
67.719002 -19.280001 0.52999997
67.088997 -18.219 0.92000002
67.028999 -18.099001 0.67000002
67 -18.018999 0.56999999
67.039001 -18.129 0.37
67.079002 -18.229 0.25
67 -18.040001 0.090000004
67.129997 -18.540001 1.46
67.098999 -18.459 1.39
67.058998 -18.379 1.29
67.010002 -18.25 1.12
66.948997 -18.120001 0.94999999
66.848999 -17.889 0.88999999
66.768997 -17.709 0.73000002
66.709 -17.57 0.31
67.198997 -18.938999 1.64
67.058998 -18.610001 1.5599999
66.940002 -18.32 1.5
67 -18.479 1.39
67.329002 -19.268999 1.1799999
66.948997 -18.360001 1.2
67.268997 -19.120001 0.88999999
66.829002 -18.059 0.95999998
66.658997 -17.679001 0.83999997
66.598999 -17.530001 0.77999997
66.539001 -17.399 0.62
66.549004 -17.419001 0.25
66.518997 -17.349001 0.18000001
67.079002 -18.889 1.64
67 -18.679001 1.5599999
66.899002 -18.459 1.5
67.260002 -19.33 1.29
67.268997 -19.360001 1.1799999
67.260002 -19.33 1.09
67.25 -19.309 0.98000002
66.658997 -17.889 0.92000002
66.588997 -17.729 0.85000002
66.459 -17.438999 0.34999999
66.988998 -18.899 1.64
66.899002 -18.679001 1.5599999
66.829002 -18.530001 1.5
67.179001 -19.370001 1.29
66.738998 -18.299 1.04
66.658997 -18.129 0.98000002
66.408997 -17.530001 0.81
66.369003 -17.438999 0.63999999
66.379997 -17.479 -0
66.908997 -18.929001 1.64
66.82 -18.729 1.5700001
66.799004 -18.688999 1.48
67.109001 -19.419001 1.29
67.109001 -19.429001 1.1799999
67.109001 -19.438999 1.09
66.619003 -18.268999 1.0599999
66.57 -18.149 0.98000002
66.289001 -17.479 0.28
66.829002 -18.979 1.65
66.738998 -18.759001 1.59
66.738998 -18.759001 1.48
67.709 -21.110001 1.1
67 -19.41 1
66.889 -19.129 0.93000001
66.469002 -18.129 1
66.408997 -17.99 0.93000001
66.338997 -17.83 0.87
66.209 -17.518999 0.75
66.179001 -17.450001 0.56999999
66.168999 -17.450001 0.20999999
66.190002 -17.5 0.029999999
66.760002 -19.040001 1.65
66.658997 -18.809 1.59
66.629997 -18.75 1.5
67.639 -21.16 1.1
66.929001 -19.479 1
66.418999 -18.24 1
66.119003 -17.540001 0.67000002
66.679001 -19.099001 1.67
66.57 -18.839001 1.59
66.549004 -18.790001 1.5
67.528999 -21.139 1.12
67.478996 -21.009001 1.03
67.459 -20.99 0.79000002
66.408997 -18.469 1.0599999
66.25 -18.089001 0.94999999
66.088997 -17.700001 0.81999999
66.028999 -17.559 0.58999997
66.609001 -19.169001 1.6799999
66.5 -18.91 1.6
66.469002 -18.83 1.53
66.260002 -18.339001 1.01
66.098999 -17.979 0.88999999
65.940002 -17.599001 0.60000002
65.940002 -17.599001 0.23
65.940002 -17.620001 0.050000001
66.549004 -19.268999 1.6799999
66.418999 -18.959 1.62
66.389 -18.870001 1.53
67.369003 -21.24 1.14
66.198997 -18.438999 1.01
66.119003 -18.259001 0.94999999
66.028999 -18.040001 0.88999999
65.948997 -17.839001 0.83999997
65.869003 -17.66 0.69999999
65.908997 -17.768999 0.47999999
66.488998 -19.349001 1.6799999
66.329002 -18.979 1.62
66.348999 -19.018999 1.51
67.299004 -21.299 1.14
67.198997 -21.07 1.0599999
67.209 -21.08 0.94999999
66.190002 -18.649 1.09
66.07 -18.370001 1.03
65.948997 -18.089001 0.88999999
65.808998 -17.759001 0.77999997
65.778999 -17.679001 0.62
65.82 -17.780001 0.5
65.778999 -17.700001 0.34
66.418999 -19.399 1.6799999
66.268997 -19.049 1.62
66.209 -18.919001 1.53
67.238998 -21.370001 1.15
67.058998 -20.950001 0.87
66.018997 -18.479 1.03
65.959 -18.33 0.94999999
65.778999 -17.91 0.83999997
65.738998 -17.83 0.5
65.719002 -17.768999 0.25
66.338997 -19.459 1.6799999
66.190002 -19.120001 1.62
66.149002 -19.018999 1.53
67.010002 -21.08 1.2
66.908997 -20.839001 1.1
66.408997 -19.639 1.15
66.408997 -19.639 1.0599999
66.018997 -18.729 1.09
65.969002 -18.589001 1.01
65.799004 -18.200001 0.88999999
65.649002 -17.839001 0.77999997
65.629997 -17.790001 0.62
65.598999 -17.729 0.17
66.278999 -19.58 1.6799999
66.098999 -19.149 1.62
66.079002 -19.099001 1.53
66.899002 -21.059 1.2
66.32 -19.679001 1.26
66.338997 -19.729 1.15
65.859001 -18.589001 1.03
65.799004 -18.438999 0.94999999
65.549004 -17.870001 0.25
66.209 -19.629 1.6799999
66.039001 -19.229 1.62
65.988998 -19.129 1.53
66.799004 -21.059 1.2
66.238998 -19.719 1.26
66.25 -19.74 1.17
65.57 -18.129 0.83999997
65.469002 -17.889 0.62
65.549004 -18.110001 0.0099999998
65.959 -19.259001 1.62
65.969002 -19.280001 1.51
65.738998 -18.75 1.1
65.649002 -18.530001 0.94999999
65.558998 -18.33 0.88999999
65.399002 -17.959 0.69999999
65.429001 -18.030001 0.5
65.348999 -17.849001 0.17
65.889 -19.349001 1.62
65.848999 -19.25 1.53
66.609001 -21.08 1.21
66.109001 -19.889 1.25
66.088997 -19.839001 1.17
66.088997 -19.83 1.0599999
65.629997 -18.75 1.03
65.57 -18.599001 0.94999999
65.478996 -18.389 0.88999999
65.389 -18.169001 0.83999997
65.329002 -18.030001 0.77999997
65.308998 -17.99 0.62
65.308998 -18 0.34
65.278999 -17.929001 0.079999998
65.299004 -17.99 -0.02
65.768997 -19.33 1.53
65.929001 -19.700001 1.39
66.028999 -19.950001 1.26
66.079002 -20.08 1.14
66.039001 -19.99 1.0599999
65.588997 -18.91 1.1
65.5 -18.700001 0.94999999
65.399002 -18.459 0.89999998
65.228996 -18.040001 0.62
65.198997 -17.99 0.079999998
65.629997 -19.219 1.45
65.57 -19.08 1.17
65.879997 -19.839001 0.95999998
65.510002 -18.938999 1
65.338997 -18.559 0.88999999
65.158997 -18.139 0.31999999
65.129997 -18.049 0.16
65.459 -19.059 1.09
65.329002 -18.75 0.94999999
65.25 -18.559 0.88999999
65.179001 -18.399 0.81999999
65.109001 -18.229 0.75999999
65.149002 -18.33 0.47999999
65.129997 -18.299 -0.07
65.389 -19.16 0.98000002
65.018997 -18.280001 0.58999997
65.010002 -18.259001 0.039999999
65.338997 -19.259001 1.0599999
65.348999 -19.290001 0.95999998
65.039001 -18.57 0.34
65.079002 -18.669001 0.23
65.260002 -19.309 1.0599999
65.228996 -18.929001 0.079999998
65.278999 -18.790001 0.44999999
65.359001 -18.99 0.47999999
65.609001 -19.57 0.67000002
65.399002 -19.08 0.28999999
65.768997 -19.700001 0.69999999
65.728996 -19.620001 0.62
65.649002 -19.429001 0.47999999
65.719002 -19.589001 0.40000001
65.698997 -19.549 0.12
65.969002 -19.938999 0.56
66.049004 -20.120001 0.37
65.5 -18.589001 0.56999999
65.679001 -19 0.63999999
65.929001 -19.599001 0.83999997
66.028999 -19.839001 0.81
65.978996 -19.719 0.67000002
66.079002 -19.950001 0.68000001
66.158997 -20.120001 0.67000002
66.209 -20.25 0.64999998
66.268997 -20.389 0.58999997
66.32 -20.5 0.52999997
66.329002 -20.540001 0.28
66.198997 -19.969 0.81
66.158997 -19.889 0.70999998
66.399002 -20.438999 0.77999997
66.359001 -20.360001 0.68000001
66.440002 -20.540001 0.69999999
66.528999 -20.759001 0.67000002
66.609001 -20.938999 0.52999997
66.639 -21.009001 0.44999999
66.649002 -21.040001 0.34999999
65.698997 -18.559 0.58999997
66.209 -19.759001 1.03
66.278999 -19.919001 1.0599999
66.348999 -20.08 1.09
66.510002 -20.450001 0.88999999
66.539001 -20.518999 0.81
66.609001 -20.700001 0.81999999
66.690002 -20.879 0.75999999
66.760002 -21.040001 0.75
66.848999 -21.24 0.62
66.899002 -21.370001 0.58999997
66.940002 -21.459 0.5
66.988998 -21.58 0.43000001
66.929001 -21.438999 0.15000001
66.379997 -19.91 1.12
66.488998 -20.16 1.14
66.549004 -20.299 1.12
66.588997 -20.399 1.01
66.668999 -20.58 0.81999999
66.629997 -20.5 0.69999999
66.859001 -21.018999 0.83999997
66.690002 -20.620001 0.56
66.639 -20.509001 0.44999999
66.889 -21.099001 0.75
66.969002 -21.280001 0.77999997
67.058998 -21.49 0.77999997
67.098999 -21.589001 0.67000002
67.168999 -21.75 0.58999997
67.198997 -21.83 0.5
65.889 -18.530001 0.62
66.478996 -19.899 1.14
66.539001 -20.049 1.15
66.719002 -20.469 1.14
66.789001 -20.620001 1.14
66.838997 -20.729 1.12
66.929001 -20.959 1.09
66.969002 -21.040001 1.0599999
67.018997 -21.16 1.03
67.139 -21.450001 0.87
67.168999 -21.509001 0.79000002
67.260002 -21.729 0.77999997
67.359001 -21.959 0.73000002
65.869003 -18.229 0.58999997
66.579002 -19.889 1.15
66.668999 -20.099001 1.15
66.768997 -20.33 1.1799999
66.848999 -20.530001 1.15
66.908997 -20.66 1.14
66.948997 -20.75 1.12
67.010002 -20.899 1.12
67.018997 -20.91 1.01
67.129997 -21.179001 0.95999998
67.179001 -21.280001 0.88999999
67.219002 -21.389 0.85000002
67.25 -21.450001 0.77999997
67.32 -21.620001 0.83999997
67.379997 -21.759001 0.81
67.440002 -21.879 0.63999999
66.579002 -19.639 1.12
66.658997 -19.839001 1.15
66.698997 -19.938999 1.15
66.808998 -20.188999 1.17
66.859001 -20.299 1.2
66.889 -20.360001 1.17
66.978996 -20.58 1.17
67.028999 -20.700001 1.15
67.098999 -20.860001 1.12
66.82 -20.200001 0.38999999
66.908997 -20.419001 0.47999999
67.219002 -21.129 0.81
67.329002 -21.399 0.85000002
67.389 -21.530001 0.81
67.418999 -21.599001 0.83999997
66.649002 -19.57 1.1
66.75 -19.799 1.15
66.929001 -20.209 1.17
67 -20.389 1.17
67.088997 -20.599001 1.17
67.190002 -20.83 1.14
67.198997 -20.839001 1.0599999
66.948997 -20.259001 0.70999998
67.260002 -20.99 0.87
67.588997 -21.75 0.81
66.760002 -19.58 1.12
66.899002 -19.899 1.17
66.948997 -20.030001 1.1799999
67.028999 -20.219 1.2
67.119003 -20.419001 1.17
67.289001 -20.82 1.09
66.929001 -19.969 0.38999999
67.359001 -20.969 0.83999997
67.459 -21.209 0.87
67.719002 -21.809 0.83999997
67.75 -21.870001 0.75
66.179001 -17.99 0.56
66.82 -19.49 1.1
67.049004 -20.018999 1.17
67.129997 -20.209 1.17
67.179001 -20.309 1.1799999
67.238998 -20.438999 1.17
67.348999 -20.709 1.12
66.948997 -19.780001 0.40000001
67.539001 -21.149 0.88999999
67.510002 -21.08 0.81
67.82 -21.809 0.83999997
66.889 -19.389 1.09
67.049004 -19.780001 1.17
67.158997 -20.018999 1.1799999
67.260002 -20.25 1.17
67.32 -20.389 1.17
67.369003 -20.518999 1.15
67.418999 -20.629 1.14
67.469002 -20.74 1.14
67.158997 -20.018999 0.56999999
67.109001 -19.91 0.46000001
67.079002 -19.83 0.23
67.558998 -20.938999 0.85000002
67.639 -21.129 0.81
67.698997 -21.268999 0.87
67.778999 -21.469 0.83999997
67.82 -21.559 0.83999997
67 -19.41 1.12
67.079002 -19.58 1.14
67.119003 -19.688999 1.14
67.190002 -19.839001 1.17
67.25 -19.979 1.2
67.278999 -20.059 1.1799999
67.369003 -20.268999 1.17
67.429001 -20.399 1.17
67.510002 -20.599001 1.15
67.25 -19.99 0.52999997
67.299004 -20.110001 0.38999999
67.649002 -20.91 0.83999997
67.719002 -21.089001 0.88999999
67.789001 -21.25 0.85000002
67.838997 -21.349001 0.88999999
67.869003 -21.419001 0.87
67.899002 -21.5 0.83999997
67.278999 -19.83 1.1799999
67.379997 -20.040001 1.17
67.418999 -20.139 1.17
67.469002 -20.25 1.14
67.510002 -20.349001 1.15
67.558998 -20.469 1.14
67.598999 -20.549 1.12
67.278999 -19.82 0.37
67.609001 -20.58 0.75999999
67.778999 -20.979 0.87
67.829002 -21.099001 0.88999999
67.869003 -21.188999 0.83999997
67.908997 -21.268999 0.87
67.940002 -21.349001 0.87
68.049004 -21.589001 0.85000002
68.088997 -21.688999 0.83999997
67.209 -19.41 1.12
67.348999 -19.729 1.17
67.399002 -19.839001 1.17
67.469002 -20.009001 1.17
67.510002 -20.120001 1.1799999
67.558998 -20.219 1.15
67.719002 -20.58 1.12
67.459 -20 0.73000002
67.429001 -19.929001 0.63999999
67.760002 -20.679001 0.85000002
67.799004 -20.790001 0.88999999
67.838997 -20.879 0.83999997
68.07 -21.41 0.83999997
67.338997 -19.479 1.12
67.448997 -19.719 1.14
67.5 -19.849001 1.15
67.549004 -19.950001 1.17
67.579002 -20.030001 1.15
67.619003 -20.129 1.17
67.418999 -19.669001 0.34
67.859001 -20.679001 0.83999997
67.969002 -20.938999 0.87
68 -21 0.75
68.088997 -21.200001 0.85000002
67.389 -19.349001 1
67.539001 -19.688999 1.12
67.598999 -19.839001 1.14
67.679001 -20.018999 1.14
67.848999 -20.41 1.12
67.579002 -19.799 0.62
67.799004 -20.299 0.75
67.978996 -20.719 0.87
68.139 -21.089001 0.83999997
68.278999 -21.399 0.85000002
68.32 -21.5 0.77999997
67.629997 -19.66 0.94999999
67.719002 -19.870001 1.01
67.778999 -20.009001 1.0599999
67.838997 -20.149 1.09
68.018997 -20.559 1.12
68.039001 -20.610001 0.81
68.209 -21 0.85000002
68.168999 -20.919001 0.75
68.25 -21.099001 0.81999999
67.588997 -19.309 0.63999999
67.668999 -19.518999 0.69999999
67.778999 -19.759001 0.77999997
67.908997 -20.049 0.89999998
67.988998 -20.25 0.98000002
68.058998 -20.41 1
68.109001 -20.530001 1
68.179001 -20.688999 0.98000002
68.219002 -20.790001 0.81
68.32 -21.009001 0.88999999
68.448997 -21.32 0.83999997
68.488998 -21.399 0.83999997
67.879997 -19.75 0.63999999
67.948997 -19.91 0.69999999
68.119003 -20.32 0.77999997
68.209 -20.509001 0.87
68.299004 -20.719 0.87
68.579002 -21.360001 0.77999997
68.329002 -20.549 0.75
68.389 -20.700001 0.75
68.57 -21.110001 0.81
68.518997 -20.979 0.58999997
68.488998 -20.679001 0.54000002
68.649002 -21.040001 0.64999998
68.709 -21.179001 0.69999999
67.299004 -17.450001 0.07
67.690002 -18.099001 0.87
67.518997 -17.709 0.28
67.488998 -17.649 -0.02
67.829002 -18.179001 0.52999997
67.75 -18.018999 0.38999999
67.440002 -17.040001 0.64999998
67.848999 -18 0.87
67.859001 -18.009001 0.73000002
68.049004 -18.459 0.38999999
68.028999 -18.41 0.25999999
67.978996 -18.309 0.15000001
68.219002 -18.620001 0.16
68.079002 -18.049 0.81999999
68.369003 -18.709 0.83999997
68.469002 -18.700001 1.17
68.429001 -18.629 1.09
68.629997 -19.08 0.87
68.738998 -19.339001 0.31
68.848999 -19.589001 0.28999999
68.829002 -19.540001 0.079999998
68.488998 -18.509001 1.35
68.528999 -18.599001 1.34
68.760002 -19.129 1.17
69.088997 -19.889 0.31
68.978996 -19.399 1.3099999
68.969002 -19.370001 1.25
69.299004 -20.149 0.46000001
69.238998 -20 0.17
69.209 -19.919001 0.029999999
69.359001 -20.040001 0.75999999
69.389 -20.110001 0.58999997
69.459 -20.280001 0.41999999
69.408997 -20.149 0.23
69.329002 -19.74 1.3099999
69.459 -20.040001 1.23
69.399002 -19.889 1.12
69.448997 -20 1.04
69.469002 -20.049 0.94999999
69.549004 -20.229 0.92000002
69.488998 -20.099001 0.5
69.459 -19.799 1.39
69.510002 -19.91 1.15
69.539001 -19.969 1.03
69.558998 -20.009001 0.94999999
69.598999 -20.099001 0.38999999
69.57 -19.799 1.39
69.469002 -19.58 1
69.57 -19.790001 1.0599999
69.629997 -19.950001 1.0700001
69.549004 -19.768999 0.88999999
69.609001 -19.899 0.94999999
69.690002 -20.089001 0.95999998
69.639 -19.979 0.60000002
69.709 -20.139 0.41999999
69.649002 -19.75 1.42
69.649002 -19.759001 1.35
69.57 -19.559 0.89999998
69.738998 -19.950001 1.1
69.668999 -19.799 0.87
69.760002 -19.99 0.38999999
69.760002 -19.768999 1.45
69.760002 -19.759001 0.98000002
69.808998 -19.870001 1
69.859001 -19.99 0.62
69.808998 -19.629 1.37
69.760002 -19.530001 1.0599999
69.799004 -19.599001 1
69.869003 -19.768999 0.92000002
69.929001 -19.919001 0.52999997
69.848999 -19.5 1.34
69.789001 -19.339001 1.04
69.848999 -19.49 1.09
69.889 -19.589001 1.12
69.940002 -19.688999 1.1
69.908997 -19.639 1.04
69.918999 -19.639 0.94999999
69.969002 -19.768999 0.92000002
70.028999 -19.899 0.43000001
69.940002 -19.459 1.37
69.948997 -19.479 1.3099999
69.948997 -19.479 1.14
69.908997 -19.389 1.0599999
69.969002 -19.530001 1.04
70.049004 -19.719 1.09
69.988998 -19.57 0.95999998
70.088997 -19.799 0.67000002
70 -19.370001 1.3099999
70.088997 -19.559 1.25
70 -19.349001 1.1
70.088997 -19.559 1.15
70.058998 -19.5 1.0599999
70.109001 -19.599001 0.94999999
70.129997 -19.649 0.87
70.119003 -19.379 1.34
70.260002 -19.709 0.94999999
70.399002 -19.559 0.38999999
70.379997 -19.268999 0.92000002
70.510002 -19.559 0.69999999
70.418999 -19.129 1.25
70.510002 -19.32 1.3200001
70.518997 -19.349001 0.94999999
70.57 -19.469 0.40000001
70.518997 -19.120001 1
70.579002 -19.24 1.03
70.639 -19.379 0.77999997
70.658997 -19.429001 0.63999999
69.908997 -16.768999 0.69999999
69.609001 -16.099001 0.14
69.658997 -16.209 0.029999999
69.719002 -16.099001 0.5
70 -16.75 0.56
70.079002 -16.919001 0.5
70.119003 -17.009001 0.5
70.139 -17.07 0.41999999
70.129997 -16.799 0.69999999
70.25 -17.089001 0.63999999
70.308998 -17.209 0.62
70.389 -17.389 0.64999998
70.440002 -17.509001 0.62
70.549004 -17.759001 0.52999997
70.609001 -17.899 0.47999999
70.658997 -18 0.44999999
70.629997 -17.938999 0.28
70.228996 -16.799 0.87
70.289001 -16.929001 0.83999997
70.308998 -16.979 0.75999999
70.658997 -17.768999 0.87
70.598999 -17.629 0.69999999
70.738998 -17.950001 0.70999998
70.82 -18.139 0.73000002
70.859001 -18.24 0.70999998
70.908997 -18.33 0.64999998
70.988998 -18.518999 0.69999999
70.959 -18.469 0.56999999
71.018997 -18.599001 0.58999997
71.039001 -18.629 0.41999999
71.088997 -18.759001 0.38999999
71.028999 -18.620001 0.0099999998
70.379997 -16.91 0.98000002
70.518997 -17.219 1.03
70.579002 -17.360001 1
70.658997 -17.540001 1.03
70.698997 -17.620001 0.94999999
70.679001 -17.57 0.83999997
70.658997 -17.540001 0.68000001
70.940002 -18.16 0.88999999
71.149002 -18.639 0.68000001
71.299004 -18.99 0.77999997
71.289001 -18.959 0.54000002
71.348999 -19.110001 0.31
70.528999 -17 1.04
70.679001 -17.349001 1.09
70.82 -17.649 1.1
70.879997 -17.790001 1.12
71.25 -18.649 0.94999999
71.299004 -18.759001 0.89999998
71.338997 -18.849001 0.87
71.418999 -19.018999 0.73000002
71.440002 -19.07 0.56
71.478996 -19.16 0.40000001
70.658997 -17.059 1.09
70.709 -17.179001 1.09
70.778999 -17.339001 1.12
70.908997 -17.620001 1.2
70.869003 -17.549 1.12
71.018997 -17.879 1.1799999
70.918999 -17.639 0.79000002
70.848999 -17.49 0.67000002
71.179001 -18.25 0.75999999
71.299004 -18.509001 0.81
71.338997 -18.599001 0.81
71.418999 -18.799 0.88999999
71.379997 -18.700001 0.70999998
71.579002 -19.149 0.83999997
71.558998 -19.110001 0.69999999
71.57 -19.120001 0.41999999
70.859001 -17.290001 1.12
71 -17.610001 1.12
71.058998 -17.74 1.1
70.908997 -17.399 0.50999999
71.278999 -18.229 0.81999999
71.369003 -18.429001 0.83999997
71.448997 -18.610001 0.81
71.549004 -18.839001 0.85000002
71.668999 -19.110001 0.83999997
71.668999 -19.120001 0.75
71.658997 -19.089001 0.64999998
71.639 -19.059 0.47999999
70.799004 -16.919001 1.0599999
70.869003 -17.08 1.09
71.018997 -17.419001 1.14
71.07 -17.509001 1.14
71.219002 -17.860001 1.14
71.058998 -17.5 0.75999999
71 -17.379 0.56999999
71.338997 -18.139 0.92000002
71.379997 -18.219 0.88999999
71.488998 -18.469 0.81
71.539001 -18.589001 0.75
71.698997 -18.950001 0.79000002
71.728996 -19.009001 0.73000002
71.789001 -19.149 0.75
70.838997 -16.75 1.0599999
70.908997 -16.919001 1.09
71.010002 -17.139 1.14
71.058998 -17.259001 1.14
71.149002 -17.479 1.15
71.228996 -17.639 1.1
71.348999 -17.929001 1.17
71.329002 -17.870001 0.98000002
71.079002 -17.299 0.56
71.369003 -17.969 0.81
71.528999 -18.33 0.79000002
71.738998 -18.799 0.67000002
71.859001 -19.089001 0.83999997
71.838997 -19.040001 0.58999997
71.010002 -16.919001 1.1
71.190002 -17.33 1.15
71.190002 -17.33 1.0599999
71.408997 -17.82 1.17
71.448997 -17.919001 1.0700001
71.510002 -18.049 1.1
71.119003 -17.179001 0.28
71.649002 -18.360001 0.81
71.690002 -18.450001 0.83999997
71.738998 -18.58 0.81
71.969002 -19.089001 0.98000002
71.889 -18.91 0.69999999
71.058998 -16.799 1.0700001
71.198997 -17.110001 1.12
71.338997 -17.438999 1.21
71.32 -17.370001 1.1
71.478996 -17.75 1.17
71.528999 -17.870001 1.14
71.588997 -17.99 1.14
71.228996 -17.169001 0.31
71.738998 -18.32 0.81
71.869003 -18.629 0.81
71.978996 -18.879 0.68000001
72 -18.91 0.47999999
71.07 -16.58 1.0599999
71.168999 -16.799 1.09
71.278999 -17.059 1.12
71.338997 -17.200001 0.40000001
71.698997 -18 0.79000002
71.760002 -18.129 0.83999997
71.879997 -18.41 0.83999997
71.929001 -18.530001 0.81
72.079002 -18.870001 0.77999997
72.058998 -18.83 0.60000002
71.219002 -16.679001 1.0700001
71.278999 -16.809 1.09
71.348999 -16.969 1.1
71.478996 -17.259001 1.1
71.57 -17.469 1.15
71.760002 -17.899 1.14
71.709 -17.799 0.69999999
71.879997 -18.179001 0.79000002
71.918999 -18.268999 0.77999997
72.039001 -18.530001 0.92000002
71.959 -18.360001 0.75999999
71.408997 -16.879 1.09
71.478996 -17.030001 1.1
71.848999 -17.870001 1.12
71.57 -17.229 0.62
71.799004 -17.759001 0.87
71.848999 -17.879 0.88999999
71.859001 -17.899 0.79000002
72.228996 -18.74 0.73000002
71.399002 -16.620001 1.04
71.488998 -16.82 1.09
71.629997 -17.129 1.17
71.679001 -17.259001 1.1
71.760002 -17.429001 1.14
71.808998 -17.559 1.01
71.879997 -17.709 0.87
71.948997 -17.860001 0.83999997
72.088997 -18.169001 0.83999997
72.168999 -18.360001 0.89999998
72.359001 -18.780001 0.75999999
72.348999 -18.768999 0.62
71.469002 -16.530001 1.03
71.558998 -16.75 1.0700001
71.639 -16.919001 1.1
71.690002 -17.040001 1.12
71.760002 -17.188999 1.09
71.848999 -17.41 1.15
71.948997 -17.620001 1.03
71.859001 -17.429001 0.73000002
72.028999 -17.809 0.87
72.158997 -18.089001 0.83999997
72.209 -18.209 0.73000002
72.469002 -18.799 0.94999999
72.399002 -18.639 0.73000002
72.429001 -18.709 0.70999998
72.418999 -18.688999 0.58999997
71.389 -16.129 0.68000001
71.549004 -16.479 0.81
71.668999 -16.759001 0.88999999
71.940002 -17.370001 1.09
72.039001 -17.599001 1.0599999
72.098999 -17.74 1.09
72.209 -17.979 0.79000002
72.518997 -18.669001 0.88999999
72.478996 -18.589001 0.64999998
72.469002 -18.57 0.52999997
71.418999 -15.969 0.63999999
71.418999 -15.959 0.47999999
71.528999 -16.209 0.56
71.619003 -16.419001 0.60000002
71.709 -16.620001 0.64999998
71.75 -16.709 0.67000002
71.988998 -17.25 0.85000002
72.088997 -17.469 0.92000002
72.308998 -17.969 0.88999999
72.348999 -18.07 0.87
72.308998 -17.979 0.77999997
72.369003 -18.099001 0.77999997
72.459 -18.309 0.79000002
72.57 -18.559 0.73000002
71.528999 -15.959 0.69999999
71.879997 -16.75 0.52999997
71.948997 -16.919001 0.56999999
72.07 -17.188999 0.63999999
72.109001 -17.290001 0.67000002
72.518997 -18.219 0.58999997
72.609001 -18.399 0.5
72.668999 -18.549 0.47999999
72.619003 -18.200001 0.63999999
72.698997 -18.379 0.56
69.168999 -20.860001 0.69999999
68.929001 -20.620001 0.25
68.899002 -20.389 0.62
70.760002 -17.899 1.1799999
67.338997 -22.018999 0.34
67.679001 -21.74 1.01
67.25 -21.899 0.34999999
69.338997 -20.129 0.92000002
69.379997 -20.089001 1.28
69.268997 -19.919001 0.98000002
68.629997 -19.290001 1.09
68.728996 -19.509001 1.09
68.869003 -19.879 1.0700001
68.82 -19.370001 1.1
68.869003 -19.58 1.09
68.899002 -19.679001 1.09
68.908997 -19.780001 1.0599999
68.82 -19.110001 1.1
68.799004 -19.25 1.0700001
68.82 -18.979 1.09
68.918999 -19.169001 1.09
69.088997 -19.549 1.09
69.088997 -19.688999 1.0700001
68.869003 -19.879 0.98000002
68.838997 -18.860001 1.0700001
68.908997 -18.938999 1.09
69.010002 -19.219 1.09
69.119003 -19.399 1.09
69.158997 -19.599001 1.0700001
69.168999 -19.688999 1.0599999
69.168999 -19.790001 1.0599999
69.158997 -19.969 1.03
68.978996 -18.889 1.09
69.058998 -19.018999 1.09
69.168999 -19.200001 1.1
69.079002 -19.219 1.0599999
69.238998 -19.74 1.04
68.899002 -19.709 0.93000001
69.158997 -18.979 1.09
69.260002 -19.299 1.09
69.338997 -19.469 1.09
69.379997 -19.66 1.0599999
69.348999 -19.75 1.04
68.848999 -20.08 0.83999997
68.988998 -20.24 0.85000002
68.959 -20.040001 0.83999997
69.098999 -18.66 1.0599999
69.268997 -18.82 1.09
69.179001 -18.839001 1.0599999
69.268997 -18.919001 1.0700001
69.329002 -19.089001 1.0599999
69.549004 -19.479 1.09
69.469002 -19.700001 1.03
69.198997 -20.018999 0.88999999
68.879997 -20.009001 0.77999997
68.838997 -20.16 0.75
68.978996 -20.268999 0.77999997
69.190002 -18.620001 1.0599999
69.268997 -18.75 1.0599999
69.359001 -18.929001 1.0599999
69.448997 -19.059 1.0700001
69.5 -19.120001 1.09
69.488998 -19.219 1.0599999
69.528999 -19.370001 1.0599999
69.389 -19.899 0.93000001
69.129997 -20.58 0.75
69.308998 -18.639 1.0599999
69.448997 -18.839001 1.0700001
69.629997 -19.419001 1.04
69.459 -19.479 0.98000002
68.348999 -19.49 0.62
68.789001 -19.729 0.73000002
68.978996 -19.870001 0.77999997
69.179001 -20.290001 0.77999997
69.32 -20.679001 0.77999997
69.278999 -20.780001 0.75
69.359001 -18.74 1.03
69.440002 -18.919001 1.03
69.760002 -19.438999 1.0599999
69.168999 -19.339001 0.87
68.488998 -19.450001 0.63999999
69.119003 -19.879 0.77999997
69.168999 -19.99 0.77999997
69.129997 -18.469 0.94999999
69.219002 -18.559 0.95999998
69.558998 -18.979 1.01
69.539001 -19.07 1
69.579002 -19.179001 1
68.549004 -19.290001 0.63999999
68.399002 -19.589001 0.54000002
68.57 -19.679001 0.58999997
69.478996 -20.450001 0.77999997
69.518997 -20.74 0.75999999
69.289001 -20.870001 0.67000002
69.329002 -18.469 0.98000002
69.338997 -18.688999 0.94999999
69.418999 -18.768999 0.95999998
69.260002 -18.870001 0.88999999
69.440002 -18.979 0.94999999
69.719002 -19.200001 1
68.369003 -19.360001 0.52999997
69.238998 -19.938999 0.75
69.478996 -20.120001 0.81
69.459 -20.790001 0.69999999
69.209 -18.299 0.92000002
68.829002 -18.268999 0.81
68.010002 -18.110001 0.56
69.369003 -19.099001 0.87
69.709 -19.280001 0.94999999
69.768997 -19.349001 0.95999998
69.168999 -19.360001 0.75999999
69.629997 -20.129 0.81
69.588997 -20.219 0.79000002
69.598999 -20.74 0.73000002
69.109001 -18.25 0.87
68.948997 -18.25 0.81
68.139 -18.08 0.56
68.518997 -18.33 0.64999998
68.348999 -18.58 0.56
69.82 -19.438999 0.94999999
68.369003 -19.469 0.44999999
68.469002 -19.66 0.46000001
69.389 -19.899 0.73000002
69.75 -20.370001 0.79000002
69.768997 -20.469 0.77999997
69.75 -20.610001 0.75
68.079002 -17.919001 0.52999997
68.369003 -18.268999 0.58999997
69.389 -18.66 0.87
69.488998 -18.74 0.88999999
68.488998 -18.549 0.58999997
69.278999 -19 0.77999997
67.948997 -18.839001 0.37
69.848999 -19.339001 0.93000001
68.238998 -19.389 0.38999999
69.778999 -19.709 0.85000002
69.440002 -19.799 0.73000002
69.588997 -20.018999 0.75
69.278999 -20.899 0.52999997
69.088997 -18.089001 0.81
68.338997 -18 0.56999999
68.469002 -18.950001 0.5
69.5 -19.91 0.69999999
69.838997 -20.139 0.77999997
69.389 -20.860001 0.52999997
68.039001 -17.549 0.5
68.579002 -18.07 0.62
68.528999 -18.179001 0.56999999
69.359001 -18.620001 0.79000002
69.32 -18.879 0.75
69.158997 -19.049 0.67000002
69.690002 -19.280001 0.81
69.929001 -19.479 0.87
69.959 -19.58 0.87
69.879997 -19.610001 0.83999997
69.658997 -19.768999 0.75
69.778999 -19.938999 0.75999999
69.959 -20.389 0.75
69.918999 -20.139 0.75
69.988998 -20.200001 0.75999999
69.908997 -20.530001 0.69999999
68.168999 -17.438999 0.5
68.579002 -17.719 0.58999997
68.690002 -18.08 0.56999999
68.448997 -18.5 0.44999999
69.478996 -19.209 0.68000001
69.848999 -19.389 0.77999997
70.079002 -19.669001 0.81999999
69.940002 -19.799 0.75999999
69.940002 -19.899 0.75
70.07 -20.438999 0.73000002
69.829002 -20.58 0.62
69.469002 -20.83 0.47999999
68.369003 -17.509001 0.50999999
68.988998 -17.870001 0.67000002
69.088997 -17.959 0.69999999
68.929001 -18.030001 0.63999999
68.808998 -18.049 0.58999997
68.658997 -18.179001 0.50999999
68.760002 -18.280001 0.54000002
69.469002 -18.709 0.73000002
68.789001 -19.120001 0.43000001
70.058998 -19.959 0.75
70.139 -20.349001 0.73000002
69.719002 -20.679001 0.52999997
69.579002 -20.790001 0.47999999
69.190002 -21.009001 0.31
68.079002 -17.179001 0.41999999
68.260002 -17.32 0.46000001
68.619003 -17.589001 0.56
69.228996 -19.040001 0.56
70 -19.549 0.75
69.399002 -20.860001 0.37
68.918999 -17.75 0.58999997
68.778999 -18.139 0.5
68.959 -19.149 0.41999999
69.829002 -19.370001 0.68000001
70.158997 -19.870001 0.73000002
70.25 -19.969 0.75
70.299004 -20.08 0.75
70.219002 -20.309 0.69999999
69.338997 -20.979 0.31
68.109001 -17.030001 0.38999999
68.359001 -17.200001 0.44999999
68.539001 -17.41 0.47999999
68.75 -17.620001 0.52999997
69.018997 -17.959 0.56
68.929001 -18 0.52999997
68.869003 -18.099001 0.5
68.899002 -18.360001 0.47999999
69.338997 -18.540001 0.58999997
69.488998 -18.639 0.63999999
69.408997 -18.729 0.58999997
69.440002 -18.849001 0.58999997
70.088997 -19.509001 0.73000002
69.848999 -20.610001 0.5
69.679001 -20.719 0.41999999
69.119003 -17.99 0.56
70.359001 -20.229 0.68000001
68.698997 -17.309 0.47999999
68.940002 -17.66 0.5
69.338997 -18.229 0.56
69.469002 -18.5 0.56999999
69.940002 -19.268999 0.63999999
70.07 -19.549 0.63999999
70.278999 -19.979 0.64999998
70.369003 -20.129 0.67000002
70.028999 -20.469 0.50999999
69.940002 -20.518999 0.47999999
69.518997 -20.91 0.28
68.418999 -16.979 0.38999999
68.558998 -17.099001 0.41999999
69.57 -18.629 0.56
69.668999 -18.768999 0.56999999
69.698997 -18.889 0.56
70.028999 -19.379 0.62
70.238998 -20.33 0.56
69.829002 -19.018999 0.56
70.228996 -19.669001 0.62
70.369003 -20.290001 0.58999997
69.768997 -20.759001 0.31999999
68.879997 -17.349001 0.41999999
68.918999 -17.5 0.41999999
69.168999 -17.899 0.44999999
69.348999 -18.08 0.47999999
69.558998 -18.5 0.5
70.260002 -19.83 0.56
69.889 -20.610001 0.34
69.649002 -20.839001 0.23
68.778999 -17.24 0.34999999
69.039001 -17.669001 0.38999999
69.129997 -17.759001 0.41999999
69.488998 -18.360001 0.44999999
69.978996 -19.268999 0.5
70.119003 -19.5 0.52999997
70.389 -20.099001 0.54000002
70.348999 -20.200001 0.50999999
70.119003 -20.459 0.41999999
68.278999 -16.768999 0.2
69.418999 -18.229 0.41999999
69.760002 -18.849001 0.44999999
68.518997 -17.08 0.20999999
68.889 -17.419001 0.28999999
69.558998 -18.509001 0.38999999
69.728996 -18.719 0.41999999
69.918999 -19.110001 0.44999999
70.329002 -19.919001 0.47999999
70.379997 -20.290001 0.44999999
70.268997 -20.339001 0.41999999
70.088997 -20.559 0.31999999
68.488998 -16.849001 0.18000001
68.668999 -16.99 0.23
69.278999 -18 0.31
69.838997 -18.979 0.38999999
70.168999 -19.589001 0.43000001
70.209 -20.41 0.34999999
70.07 -19.360001 0.38999999
70.139 -19.479 0.40000001
70.25 -19.709 0.41999999
69.948997 -20.66 0.2
69.379997 -18.219 0.25
69.760002 -18.849001 0.31
69.940002 -19.179001 0.34
69.07 -17.669001 0.18000001
69.690002 -18.66 0.28
70.418999 -20.059 0.37
70.429001 -20.229 0.34999999
68.869003 -17.389 0.11
69.260002 -17.979 0.17
69.869003 -19.349001 0.23
70.348999 -20.399 0.28
69.478996 -18.349001 0.17
70.238998 -20.469 0.2
68.549004 -16.91 -0
69.948997 -19.120001 0.20999999
70.109001 -20.49 0.1
68.668999 -17.099001 -0.0099999998
69.539001 -18.5 0.11
69.808998 -18.919001 0.15000001
70.058998 -19.438999 0.17
70.179001 -19.620001 0.2
68.82 -17.290001 -0.0099999998
68.988998 -17.639 -0.029999999
69.348999 -18.139 0.029999999
70.338997 -20.309 0.1
69.658997 -18.679001 0.029999999
70.448997 -20.149 0.12
69.940002 -19.24 0.029999999
70.389 -19.969 0.07
70.25 -19.870001 0.0099999998
67.119003 -21.030001 1.15
67.039001 -20.809 1.14
67.139 -21.149 1.09
67.139 -20.719 1.15
67.07 -21 1.0700001
67.168999 -20.620001 1.14
67.260002 -20.719 1.15
67.238998 -20.91 1.1
67.168999 -21 1.0599999
67.119003 -21.280001 1
67.158997 -21.379 0.98000002
67.299004 -20.57 1.15
67.379997 -20.91 1.12
67.139 -20.929001 1.03
67.299004 -21.089001 1.0599999
67.228996 -21.32 0.98000002
67.079002 -21.370001 0.92000002
67.459 -20.860001 1.1
67.579002 -20.969 1.12
67.389 -21 1.0599999
67.440002 -21.139 1.04
67.32 -21.179001 1
67.209 -21.219 0.95999998
67.278999 -21.509001 0.92000002
67.478996 -20.479 1.15
67.57 -20.82 1.12
67.228996 -20.929001 1
67.32 -21.370001 0.92000002
67.579002 -20.669001 1.12
67.510002 -20.75 1.0700001
67.549004 -20.899 1.0599999
67.549004 -21.129 1
67.369003 -21.219 0.93000001
67.289001 -21.268999 0.89999998
67.598999 -20.370001 1.14
67.658997 -20.809 1.0700001
67.768997 -20.860001 1.09
67.448997 -21.120001 0.94999999
67.478996 -21.509001 0.87
67.478996 -21.75 0.81999999
67.518997 -21.849001 0.81
67.690002 -20.419001 1.12
67.738998 -20.518999 1.12
67.629997 -20.649 1.0599999
67.879997 -20.91 1.09
67.719002 -20.938999 1.03
67.429001 -20.969 0.93000001
67.639 -21.030001 0.98000002
67.338997 -21.120001 0.87
67.408997 -21.268999 0.87
67.418999 -21.370001 0.85000002
67.598999 -21.41 0.88999999
67.558998 -21.66 0.81999999
67.679001 -21.889 0.81
67.598999 -22 0.77999997
67.478996 -22.059 0.73000002
67.719002 -20.268999 1.14
67.778999 -20.419001 1.12
67.728996 -20.700001 1.04
67.929001 -20.759001 1.09
67.588997 -20.780001 0.98000002
67.719002 -20.839001 1.01
67.459 -20.870001 0.92000002
67.57 -20.929001 0.94999999
67.57 -21.268999 0.88999999
67.639 -21.559 0.83999997
67.789001 -20.219 1.12
67.778999 -20.309 1.1
67.82 -20.509001 1.0700001
68 -20.669001 1.09
66.848999 -20.780001 0.73000002
67.609001 -21.459 0.81
67.778999 -21.700001 0.81
67.728996 -20.149 1.09
67.869003 -20.259001 1.1
67.889 -20.459 1.0700001
66.690002 -20.768999 0.64999998
66.760002 -20.879 0.63999999
67.698997 -21.018999 0.88999999
67.738998 -21.370001 0.83999997
67.948997 -21.700001 0.83999997
67.988998 -21.790001 0.81999999
67.908997 -21.839001 0.79000002
67.838997 -21.899 0.75
67.738998 -21.959 0.70999998
67.969002 -20.41 1.0700001
66.518997 -20.530001 0.62
67.808998 -20.229 1.03
67.889 -20.290001 1.03
67.940002 -20.349001 1.04
66.598999 -20.709 0.56
67.869003 -21.32 0.81
68.058998 -21.75 0.77999997
67.649002 -22.040001 0.58999997
66.119003 -20.018999 0.52999997
68.028999 -20.49 1
68.119003 -20.639 1
67.978996 -20.83 0.92000002
67.940002 -21.018999 0.87
68.039001 -21.120001 0.87
67.978996 -21.219 0.83999997
68.168999 -21.549 0.81999999
67.768997 -21.99 0.60000002
67.399002 -22.149 0.46000001
66.039001 -19.879 0.5
66.25 -20.099001 0.50999999
67.049004 -20.349001 0.69999999
68.088997 -20.780001 0.92000002
68.109001 -21.309 0.81
68.168999 -21.41 0.81
68.260002 -21.549 0.81
68.228996 -21.649 0.77999997
68.149002 -21.700001 0.75
68.058998 -21.809 0.69999999
67.408997 -19.889 0.87
68.228996 -20.729 0.93000001
68.028999 -20.870001 0.83999997
68.198997 -21.169001 0.83999997
67.889 -21.950001 0.58999997
67.408997 -19.780001 0.85000002
68.028999 -20.370001 0.92000002
68.119003 -20.919001 0.81999999
68.268997 -21.219 0.81
68.379997 -21.399 0.81
67.539001 -19.729 0.87
67.478996 -19.889 0.81
66.848999 -20.099001 0.58999997
66.808998 -20.339001 0.52999997
68.219002 -20.629 0.88999999
68.329002 -20.83 0.87
68.299004 -20.919001 0.83999997
68.359001 -21.169001 0.81
68.379997 -21.259001 0.79000002
68.418999 -21.5 0.75
68.338997 -21.610001 0.70999998
68.190002 -21.729 0.63999999
68 -21.860001 0.56
67.629997 -22.129 0.38999999
69.488998 -19.929001 1.37
67.668999 -19.688999 0.87
67.369003 -19.99 0.73000002
66.969002 -20.24 0.56
68.338997 -21.018999 0.79000002
68.278999 -21.679001 0.63999999
69.478996 -19.860001 1.34
69.440002 -19.938999 1.3099999
66.959 -20.059 0.56
68.469002 -21.07 0.79000002
68.510002 -21.169001 0.77999997
68.558998 -21.259001 0.77999997
68.5 -21.459 0.73000002
67.579002 -22.188999 0.28999999
69.579002 -19.849001 1.34
67.539001 -20.049 0.69999999
67.889 -20.399 0.73000002
68.098999 -20.459 0.77999997
68.379997 -20.82 0.77999997
68.418999 -20.919001 0.77999997
68.399002 -21.58 0.63999999
68.209 -21.709 0.54000002
67.879997 -21.979 0.38999999
67.75 -22.120001 0.31999999
67.459 -19.82 0.67000002
67.549004 -19.889 0.69999999
66.929001 -20.129 0.44999999
68.018997 -20.360001 0.73000002
68.238998 -20.57 0.75
68.289001 -20.679001 0.75
68.518997 -20.969 0.75
68.609001 -21.169001 0.75
68.518997 -21.479 0.63999999
67.978996 -21.929001 0.38999999
69.760002 -19.719 1.35
69.440002 -19.889 1.23
67.948997 -20.139 0.73000002
68.228996 -20.469 0.73000002
68.528999 -21.179001 0.67000002
68.5 -21.290001 0.63999999
68.109001 -21.82 0.41999999
69.829002 -19.709 1.34
69.598999 -19.929001 1.23
68.639 -21.33 0.63999999
68.389 -21.620001 0.5
68.289001 -21.688999 0.46000001
69.859001 -19.610001 1.34
69.829002 -19.768999 1.28
69.478996 -20.08 1.12
68.010002 -20.089001 0.67000002
68.109001 -20.200001 0.68000001
68.129997 -21.91 0.34
67.889 -22.07 0.23
69.929001 -19.559 1.3200001
69.940002 -19.639 1.3099999
69.728996 -19.66 1.25
69.57 -19.679001 1.2
69.510002 -19.979 1.12
68.308998 -20.479 0.63999999
68.649002 -21.200001 0.58999997
69.459 -19.649 1.14
69.5 -19.790001 1.12
69.510002 -20.059 1.0599999
68.359001 -20.589001 0.60000002
68.5 -20.799 0.60000002
68.469002 -21.389 0.46000001
68.549004 -21.438999 0.47999999
68.510002 -21.549 0.44999999
68.389 -21.620001 0.38999999
68.338997 -21.75 0.34999999
68.088997 -21.969 0.23
70.039001 -19.450001 1.3099999
69.459 -19.540001 1.12
69.609001 -19.879 1.09
69.469002 -20.139 1
68.209 -20.32 0.58999997
68.57 -21.339001 0.47999999
70.278999 -19.459 1.34
69.129997 -19.49 1
68.149002 -20.219 0.54000002
68.289001 -20.5 0.52999997
68.629997 -21.018999 0.52999997
68.698997 -21.290001 0.47999999
68.658997 -21.399 0.44999999
68.598999 -21.518999 0.40000001
68.5 -21.649 0.34999999
68.228996 -21.870001 0.23
69.558998 -20.089001 0.95999998
69.429001 -20.179001 0.89999998
68.238998 -20.389 0.5
70.219002 -19.589001 1.23
69.908997 -19.780001 1.09
69.658997 -19.809 1.01
69.709 -20 1
69.829002 -20.049 1.01
70.359001 -19.25 1.3099999
69.709 -19.899 0.98000002
68.389 -20.518999 0.44999999
68.709 -21.169001 0.41999999
70.348999 -19.179001 1.28
69.918999 -19.899 1
68.5 -20.809 0.38999999
68.728996 -21.41 0.34
68.668999 -21.540001 0.28
68.139 -21.82 0.07
70.039001 -19.809 1.03
69.82 -19.938999 0.93000001
68.219002 -20.32 0.37
70.429001 -19.290001 1.21
69.778999 -20.030001 0.87
67.969002 -20.339001 0.25999999
70.478996 -19.229 1.21
70.209 -19.75 1.03
69.940002 -20.018999 0.88999999
70.408997 -19.209 1.17
70.119003 -19.879 0.93000001
69.908997 -19.929001 0.87
68.588997 -20.929001 0.25999999
70.609001 -19.268999 1.1799999
70.469002 -19.299 1.14
70.039001 -19.83 0.88999999
69.848999 -20.030001 0.79000002
68.698997 -21.120001 0.23
69.848999 -18.979 0.98000002
70.158997 -19.688999 0.92000002
69.528999 -20.25 0.62
68.190002 -20.389 0.2
70.469002 -19.219 1.09
70.469002 -19.32 1.0599999
70.109001 -19.780001 0.87
70.010002 -19.879 0.81
69.719002 -20.040001 0.69999999
68.539001 -21.5 0.029999999
70.598999 -19.450001 1.04
70.348999 -19.629 0.93000001
69.929001 -20.030001 0.73000002
68.329002 -20.669001 0.12
68.709 -21.299 0.090000004
70.429001 -19.24 1.01
70.469002 -19.429001 0.98000002
70.379997 -19.530001 0.93000001
69.728996 -20.149 0.62
69.969002 -19 0.89999998
70.299004 -19.669001 0.85000002
69.528999 -20.280001 0.5
70.629997 -19.33 1
70.469002 -19.518999 0.89999998
68.57 -20.83 0.07
69.25 -18.299 0.77999997
70.539001 -19.268999 0.94999999
70.418999 -19.559 0.83999997
70.179001 -19.768999 0.73000002
70 -19.99 0.63999999
68.418999 -20.41 0.079999998
69.440002 -18.209 0.81
69.338997 -18.370001 0.75
70.338997 -18.91 0.92000002
70.418999 -18.959 0.93000001
70.338997 -19.110001 0.88999999
70.488998 -19.169001 0.92000002
70.609001 -19.219 0.93000001
70.609001 -19.41 0.88999999
69.929001 -20.059 0.56
70.469002 -19.370001 0.81999999
70.260002 -19.839001 0.67000002
70.639 -19.268999 0.85000002
70.369003 -19.729 0.67000002
70.049004 -19.959 0.52999997
70.139 -19.799 0.56
70.149002 -19.91 0.52999997
69.889 -19.979 0.44999999
69.889 -20.149 0.40000001
70.488998 -18.899 0.81
70.598999 -19.209 0.75999999
70.558998 -19.370001 0.73000002
69.760002 -20.25 0.31
71.098999 -18.209 1.09
70.649002 -19.268999 0.73000002
71.139 -18.110001 1.0700001
70.579002 -19.49 0.62
70.168999 -19.839001 0.41999999
70.079002 -20.08 0.34
69.929001 -20.16 0.28
71.129997 -18.179001 1.01
71.179001 -18.290001 1
71.149002 -18.429001 0.95999998
70.668999 -19.33 0.63999999
69.639 -20.209 0.14
71.408997 -18.059 1.09
71.32 -18.099001 1.04
71.399002 -18.16 1.0599999
71.228996 -18.179001 1
71.168999 -18.57 0.88999999
70.609001 -19.219 0.58999997
71.629997 -18.08 1.09
71.429001 -18.099001 1.03
71.539001 -18.16 1.0599999
71.190002 -18.32 0.92000002
71.209 -18.469 0.88999999
71.260002 -18.620001 0.87
70.57 -19.009001 0.58999997
70.690002 -19.438999 0.52999997
71.57 -17.91 1.0700001
71.459 -18.229 0.98000002
71.510002 -19.049 0.81999999
70.260002 -19.938999 0.25
71.728996 -17.959 1.0700001
71.308998 -18.299 0.88999999
71.149002 -18.389 0.81
71.228996 -18.549 0.81
71.32 -18.799 0.77999997
71.399002 -18.899 0.77999997
71.478996 -18.950001 0.79000002
70.649002 -19.229 0.47999999
70.518997 -19.688999 0.34999999
70.399002 -19.82 0.28999999
71.690002 -18.129 1
71.639 -18.509001 0.88999999
71.918999 -17.82 1.09
71.75 -17.839001 1.03
71.510002 -17.959 0.93000001
71.899002 -18.049 1.03
71.278999 -18.339001 0.77999997
71.579002 -18.649 0.81
71.528999 -18.75 0.77999997
71.649002 -18.799 0.81
71.829002 -18.899 0.83999997
70.899002 -19.24 0.47999999
70.690002 -19.540001 0.37
71.969002 -17.709 1.09
71.869003 -17.75 1.0599999
72.039001 -18.099001 1.03
71.549004 -18.099001 0.88999999
71.418999 -18.139 0.83999997
71.359001 -18.290001 0.77999997
71.728996 -18.700001 0.81
72.058998 -18.938999 0.87
71.899002 -18.99 0.81
70.709 -19.379 0.37
71.948997 -17.790001 1.03
71.190002 -17.849001 0.77999997
70.948997 -18.099001 0.67000002
71.799004 -18.5 0.83999997
71.859001 -18.75 0.81
72.139 -18.879 0.87
71.808998 -19.040001 0.73000002
71.079002 -19.25 0.46000001
72.190002 -17.66 1.09
72.149002 -17.799 1.0599999
71.978996 -17.919001 0.98000002
71.829002 -17.959 0.92000002
70.728996 -17.91 0.60000002
71.219002 -18.110001 0.69999999
72.039001 -18.74 0.81999999
72.209 -18.83 0.85000002
72.028999 -17.768999 0.98000002
71.07 -17.929001 0.64999998
71.649002 -18.08 0.81
72.198997 -18.679001 0.83999997
71.959 -18.979 0.70999998
71.549004 -19.169001 0.56
71.969002 -17.450001 1
72.209 -17.729 1.01
72.329002 -17.790001 1.03
72.109001 -17.809 0.95999998
71.959 -18.188999 0.83999997
72.079002 -18.389 0.83999997
72.039001 -18.49 0.81
71.098999 -17.370001 0.70999998
72.129997 -17.559 0.98000002
72.190002 -17.91 0.93000001
71.899002 -17.99 0.83999997
72.039001 -18.290001 0.81
72.308998 -18.589001 0.83999997
72.289001 -18.729 0.79000002
72.190002 -18.879 0.73000002
71.899002 -19.049 0.62
70.598999 -19.339001 0.16
71.5 -17.309 0.81
70.369003 -17.209 0.5
72.088997 -17.649 0.92000002
72.158997 -17.700001 0.93000001
72.079002 -18.040001 0.83999997
72.168999 -18.438999 0.77999997
72.379997 -18.679001 0.81
72.088997 -18.938999 0.67000002
71.738998 -19.129 0.50999999
70.969002 -17.290001 0.62
71.359001 -17.450001 0.70999998
72.329002 -17.860001 0.92000002
72.190002 -18.290001 0.79000002
72.488998 -18.540001 0.83999997
71.579002 -19.219 0.41999999
71.609001 -17.209 0.81
72.198997 -17.839001 0.85000002
72.478996 -18.629 0.77999997
69.969002 -16.83 0.34999999
72 -17.509001 0.81999999
72.389 -17.799 0.88999999
72.448997 -17.950001 0.87
72.418999 -18.188999 0.81
72.32 -18.339001 0.75
72.629997 -18.530001 0.81
71.929001 -19.040001 0.5
70.168999 -16.870001 0.38999999
71.579002 -17.299 0.70999998
71.399002 -17.33 0.64999998
71.549004 -17.459 0.67000002
72.219002 -17.629 0.83999997
72.149002 -17.729 0.79000002
72.129997 -17.83 0.75999999
72.518997 -18.438999 0.75999999
72.190002 -18.870001 0.56999999
71.719002 -19.188999 0.37
71.549004 -19.33 0.28999999
71.728996 -16.979 0.79000002
71.219002 -17.429001 0.54000002
72.478996 -18.040001 0.79000002
72.698997 -18.479 0.77999997
71.639 -16.950001 0.73000002
71.619003 -17.120001 0.69999999
70.728996 -17.509001 0.34
72.338997 -17.83 0.75999999
72.478996 -17.938999 0.77999997
72.5 -18.188999 0.75
72.588997 -18.389 0.73000002
71.869003 -19.08 0.37
71.039001 -17.360001 0.43000001
72.228996 -17.669001 0.73000002
72.528999 -18.649 0.62
72.299004 -18.83 0.50999999
72.109001 -18.959 0.41999999
71.969002 -19.030001 0.37
71.789001 -19.229 0.28
71.789001 -16.91 0.73000002
71.510002 -16.929001 0.63999999
71.728996 -17.07 0.67000002
71.719002 -17.299 0.62
72.149002 -17.66 0.67000002
72.308998 -17.719 0.70999998
72.518997 -18.139 0.68000001
72.379997 -18.780001 0.5
71.988998 -17.200001 0.68000001
72.260002 -17.438999 0.70999998
72.228996 -17.549 0.68000001
72.399002 -17.879 0.67000002
72.399002 -17.979 0.63999999
72.658997 -18.389 0.63999999
72.609001 -18.5 0.58999997
72.039001 -19.110001 0.31
72.139 -17.438999 0.63999999
72.558998 -18.040001 0.63999999
72.299004 -17.5 0.63999999
72.379997 -17.559 0.64999998
72.308998 -17.768999 0.58999997
72.418999 -18.370001 0.5
72.539001 -18.629 0.47999999
72.278999 -18.879 0.34
72.399002 -17.938999 0.54000002
72.488998 -18.700001 0.41999999
72.379997 -18.768999 0.37
72.190002 -19.030001 0.25
72.440002 -17.839001 0.54000002
72.459 -18.059 0.5
72.57 -18.120001 0.47999999
72.668999 -18.280001 0.47999999
72.75 -18.429001 0.47999999
72.609001 -18.669001 0.38999999
72.359001 -18.929001 0.25
72.778999 -18.559 0.38999999
72.738998 -18.389 0.28999999
72.75 -18.610001 0.17
72.619003 -18.688999 0.12
72.5 -18.768999 0.07
72.690002 -18.469 0.14
72.539001 -18.518999 -0.029999999
