# .PCD v0.7 - Point Cloud Data file format
VERSION 0.7
FIELDS x y z
SIZE 4 4 4
TYPE F F F
COUNT 1 1 1
WIDTH 1553
HEIGHT 1
VIEWPOINT 0 0 0 1 0 0 0
POINTS 1553
DATA ascii
18.180096 -11.902578 4.724709
18.280096 -11.902578 4.744709
18.380096 -11.902578 4.7687092
18.480097 -11.902578 4.7617092
18.580095 -11.902578 4.7947092
18.680096 -11.902578 4.8147092
18.780096 -11.902578 4.8187089
18.880096 -11.902578 4.8197088
18.980097 -11.902578 4.8207092
19.080095 -11.902578 4.8467088
19.180096 -11.902578 4.8647089
19.280096 -11.902578 4.8687091
19.380096 -11.902578 4.908709
19.480097 -11.902578 4.9017091
19.580095 -11.902578 4.928709
19.680096 -11.902578 4.948709
19.780096 -11.902578 4.9517088
19.880096 -11.902578 4.9697089
19.980097 -11.902578 4.9677091
20.080095 -11.902578 4.9847088
20.180096 -11.902578 4.9987092
20.280096 -11.902578 5.0287089
20.380096 -11.902578 5.0357089
20.480097 -11.902578 5.0327091
20.580095 -11.902578 5.047709
20.680096 -11.902578 5.0687089
20.780096 -11.902578 5.0847092
20.880096 -11.902578 5.0907092
20.980097 -11.902578 5.1017089
21.080095 -11.902578 5.1087089
21.180096 -11.902578 5.1377091
21.280096 -11.902578 5.152709
21.380096 -11.902578 5.145709
21.480097 -11.902578 5.1687088
21.580095 -11.902578 5.178709
21.680096 -11.902578 5.1807089
21.780096 -11.902578 5.2027092
21.880096 -11.902578 5.2197089
21.980097 -11.902578 5.2367091
22.080095 -11.902578 5.192709
22.180096 -11.902578 5.1057091
-20.319904 -12.002578 1.080709
-18.919905 -12.002578 1.1437089
-17.719904 -12.002578 1.170709
-17.319904 -12.002578 1.164709
-16.019903 -12.002578 1.243709
-15.119904 -12.002578 1.285709
-13.019904 -12.002578 1.417709
-12.719904 -12.002578 1.441709
-11.919904 -12.002578 1.512709
-11.619904 -12.002578 1.557709
-11.319904 -12.002578 1.582709
-10.119904 -12.002578 1.752709
-9.4199038 -12.002578 1.816709
-8.8199043 -12.002578 1.900709
-8.3199043 -12.002578 1.953709
-7.4199042 -12.002578 2.089709
-6.4199042 -12.002578 2.1807089
-5.9199042 -12.002578 2.2467091
-5.3199039 -12.002578 2.2827089
-4.5199041 -12.002578 2.3977089
-3.7199039 -12.002578 2.471709
-3.5199039 -12.002578 2.491709
-3.2199039 -12.002578 2.514709
-3.0199039 -12.002578 2.5157089
-2.3199041 -12.002578 2.606709
-1.919904 -12.002578 2.6247089
-0.91990399 -12.002578 2.6977091
-0.61990398 -12.002578 2.7367091
-0.41990399 -12.002578 2.7527089
-0.21990401 -12.002578 2.7667091
0.080095999 -12.002578 2.780709
0.28009599 -12.002578 2.794709
0.48009601 -12.002578 2.8127091
0.78009599 -12.002578 2.810709
1.080096 -12.002578 2.856709
1.380096 -12.002578 2.8677089
1.580096 -12.002578 2.882709
1.980096 -12.002578 2.899709
2.1800959 -12.002578 2.928709
2.380096 -12.002578 2.9277091
2.7800961 -12.002578 2.965709
3.080096 -12.002578 2.988709
3.2800961 -12.002578 2.9907091
3.4800961 -12.002578 3.0237091
3.6800959 -12.002578 3.0517089
3.9800961 -12.002578 3.066709
4.2800961 -12.002578 3.0797091
4.4800959 -12.002578 3.1177089
4.6800961 -12.002578 3.133709
4.9800959 -12.002578 3.178709
5.1800961 -12.002578 3.1837089
5.380096 -12.002578 3.1947091
5.5800958 -12.002578 3.2207091
5.880096 -12.002578 3.247709
6.1800961 -12.002578 3.2737091
6.4800959 -12.002578 3.3097091
6.6800961 -12.002578 3.320709
6.880096 -12.002578 3.3387091
7.1800961 -12.002578 3.3717091
7.380096 -12.002578 3.3947091
7.6800961 -12.002578 3.4367089
7.9800959 -12.002578 3.464709
8.1800957 -12.002578 3.4967091
8.4800959 -12.002578 3.5257089
8.7800961 -12.002578 3.5647089
9.2800961 -12.002578 3.6247089
9.4800959 -12.002578 3.6407089
9.6800957 -12.002578 3.6537089
10.080096 -12.002578 3.714709
10.280096 -12.002578 3.747709
10.480096 -12.002578 3.780709
10.680096 -12.002578 3.804709
10.880096 -12.002578 3.8147089
10.980096 -12.002578 3.8447089
11.280096 -12.002578 3.885709
11.580096 -12.002578 3.9277091
11.780096 -12.002578 3.938709
11.880096 -12.002578 3.974709
11.980096 -12.002578 3.985709
12.080096 -12.002578 3.997709
12.180096 -12.002578 3.9897089
12.280096 -12.002578 4.0367088
12.380096 -12.002578 4.053709
12.580096 -12.002578 4.0637088
12.680096 -12.002578 4.0797091
12.780096 -12.002578 4.1077089
12.880096 -12.002578 4.132709
12.980096 -12.002578 4.1447091
13.080096 -12.002578 4.1607089
13.180096 -12.002578 4.1627092
13.280096 -12.002578 4.1877089
13.380096 -12.002578 4.1627092
13.480096 -12.002578 4.198709
13.580096 -12.002578 4.2197089
13.680096 -12.002578 4.2267089
13.780096 -12.002578 4.2457089
13.880096 -12.002578 4.2617092
13.980096 -12.002578 4.2597089
14.080096 -12.002578 4.2787089
14.180096 -12.002578 4.2857089
14.280096 -12.002578 4.2817092
14.380096 -12.002578 4.3007088
14.480096 -12.002578 4.3187089
14.580096 -12.002578 4.3217092
14.680096 -12.002578 4.3327088
14.780096 -12.002578 4.3607092
14.880096 -12.002578 4.3737092
14.980096 -12.002578 4.3867092
15.080096 -12.002578 4.383709
15.180096 -12.002578 4.4117088
15.280096 -12.002578 4.4257088
15.380096 -12.002578 4.4367089
15.480096 -12.002578 4.4457092
15.580096 -12.002578 4.4567089
15.680096 -12.002578 4.4727092
15.780096 -12.002578 4.4737091
15.880096 -12.002578 4.4987092
15.980096 -12.002578 4.501709
16.080095 -12.002578 4.501709
16.180096 -12.002578 4.527709
16.280096 -12.002578 4.5377092
16.380096 -12.002578 4.5487089
16.480097 -12.002578 4.5757089
16.580095 -12.002578 4.5717092
16.680096 -12.002578 4.5727091
16.780096 -12.002578 4.600709
16.880096 -12.002578 4.6227088
16.980097 -12.002578 4.6217089
17.080095 -12.002578 4.626709
17.180096 -12.002578 4.6557088
17.280096 -12.002578 4.665709
17.380096 -12.002578 4.6897092
17.480097 -12.002578 4.692709
17.580095 -12.002578 4.7037091
17.680096 -12.002578 4.7267089
17.780096 -12.002578 4.7227092
17.880096 -12.002578 4.7407088
17.980097 -12.002578 4.7407088
18.080095 -12.002578 4.7657089
18.180096 -12.002578 4.771709
18.280096 -12.002578 4.7947092
18.380096 -12.002578 4.7887092
18.480097 -12.002578 4.810709
18.580095 -12.002578 4.8407092
18.680096 -12.002578 4.8597088
18.780096 -12.002578 4.8777089
18.880096 -12.002578 4.8927088
18.980097 -12.002578 4.9197092
19.080095 -12.002578 4.9067092
19.180096 -12.002578 4.9217091
19.280096 -12.002578 4.9437089
19.380096 -12.002578 4.9607091
19.480097 -12.002578 4.9607091
19.580095 -12.002578 4.981709
19.680096 -12.002578 4.9907088
19.780096 -12.002578 5.0047088
19.880096 -12.002578 5.0157089
19.980097 -12.002578 5.0177088
20.080095 -12.002578 5.0287089
20.180096 -12.002578 5.0397091
20.280096 -12.002578 5.0747089
20.380096 -12.002578 5.086709
20.480097 -12.002578 5.0967088
20.580095 -12.002578 5.0957088
20.680096 -12.002578 5.1307092
20.780096 -12.002578 5.139709
20.880096 -12.002578 5.152709
20.980097 -12.002578 5.1557088
21.080095 -12.002578 5.1687088
21.180096 -12.002578 5.1907091
21.280096 -12.002578 5.1867089
21.380096 -12.002578 5.1817088
21.480097 -12.002578 5.179709
21.580095 -12.002578 5.191709
21.680096 -12.002578 5.231709
21.780096 -12.002578 5.251709
21.880096 -12.002578 5.231709
22.080095 -12.002578 5.100709
-20.119904 -12.102578 1.1487091
-19.319904 -12.102578 1.177709
-16.319904 -12.102578 1.2737091
-15.719904 -12.102578 1.284709
-14.419904 -12.102578 1.3527091
-13.719904 -12.102578 1.397709
-12.519904 -12.102578 1.455709
-10.619904 -12.102578 1.688709
-9.7199039 -12.102578 1.8067091
-8.6199036 -12.102578 1.899709
-8.1199036 -12.102578 1.978709
-7.2199039 -12.102578 2.1147089
-7.0199041 -12.102578 2.132709
-6.8199039 -12.102578 2.156709
-6.619904 -12.102578 2.178709
-6.2199039 -12.102578 2.2047091
-5.0199041 -12.102578 2.3217089
-4.119904 -12.102578 2.4267089
-3.919904 -12.102578 2.445709
-3.3199041 -12.102578 2.475709
-2.7199039 -12.102578 2.5327089
-2.419904 -12.102578 2.5587089
-2.119904 -12.102578 2.6047089
-1.819904 -12.102578 2.623709
-1.619904 -12.102578 2.655709
-1.319904 -12.102578 2.6837089
-1.119904 -12.102578 2.692709
-0.71990401 -12.102578 2.718709
-0.51990402 -12.102578 2.7177091
-0.319904 -12.102578 2.761709
-0.019904001 -12.102578 2.7727089
0.38009599 -12.102578 2.8117089
0.68009597 -12.102578 2.823709
0.98009598 -12.102578 2.8297091
1.180096 -12.102578 2.8587091
1.7800961 -12.102578 2.896709
2.080096 -12.102578 2.908709
2.4800961 -12.102578 2.9547091
2.9800961 -12.102578 2.9967091
3.1800959 -12.102578 3.0167091
3.380096 -12.102578 3.034709
3.580096 -12.102578 3.0487089
3.880096 -12.102578 3.0727091
4.1800961 -12.102578 3.1147089
4.380096 -12.102578 3.1207089
4.5800958 -12.102578 3.135709
4.7800961 -12.102578 3.1677091
5.0800958 -12.102578 3.1897089
5.2800961 -12.102578 3.192709
5.4800959 -12.102578 3.2007091
5.6800961 -12.102578 3.237709
6.0800958 -12.102578 3.2757089
6.2800961 -12.102578 3.300709
6.5800958 -12.102578 3.326709
6.7800961 -12.102578 3.350709
7.0800958 -12.102578 3.3657091
7.2800961 -12.102578 3.392709
7.4800959 -12.102578 3.4137089
7.880096 -12.102578 3.468709
8.0800962 -12.102578 3.4827089
8.3800964 -12.102578 3.531709
8.6800957 -12.102578 3.5597091
8.8800964 -12.102578 3.5797091
9.0800962 -12.102578 3.6087091
9.3800964 -12.102578 3.6317091
9.5800962 -12.102578 3.6817091
9.8800964 -12.102578 3.7037089
10.180096 -12.102578 3.7637091
10.380096 -12.102578 3.784709
10.580096 -12.102578 3.8297091
10.880096 -12.102578 3.873709
11.080096 -12.102578 3.8987091
11.280096 -12.102578 3.928709
11.380096 -12.102578 3.945709
11.480096 -12.102578 3.9447091
11.580096 -12.102578 3.952709
11.680096 -12.102578 3.9667089
11.880096 -12.102578 4.0127091
11.980096 -12.102578 4.0307088
12.080096 -12.102578 4.0387092
12.180096 -12.102578 4.0507088
12.280096 -12.102578 4.053709
12.380096 -12.102578 4.0787091
12.480096 -12.102578 4.1077089
12.580096 -12.102578 4.119709
12.680096 -12.102578 4.1227088
12.780096 -12.102578 4.132709
12.880096 -12.102578 4.1677089
12.980096 -12.102578 4.1827092
13.080096 -12.102578 4.2007089
13.180096 -12.102578 4.2027092
13.280096 -12.102578 4.2347088
13.380096 -12.102578 4.2487092
13.480096 -12.102578 4.2507091
13.580096 -12.102578 4.2597089
13.680096 -12.102578 4.2617092
13.780096 -12.102578 4.270709
13.880096 -12.102578 4.284709
13.980096 -12.102578 4.2947092
14.080096 -12.102578 4.2877092
14.180096 -12.102578 4.2987089
14.280096 -12.102578 4.3267088
14.380096 -12.102578 4.3427091
14.480096 -12.102578 4.350709
14.580096 -12.102578 4.3727088
14.680096 -12.102578 4.382709
14.780096 -12.102578 4.4067092
14.880096 -12.102578 4.3947091
14.980096 -12.102578 4.3997092
15.080096 -12.102578 4.4477091
15.180096 -12.102578 4.4507089
15.280096 -12.102578 4.455709
15.380096 -12.102578 4.4677091
15.480096 -12.102578 4.4787092
15.580096 -12.102578 4.4897089
15.680096 -12.102578 4.5057092
15.780096 -12.102578 4.5107088
15.880096 -12.102578 4.514709
15.980096 -12.102578 4.5317092
16.080095 -12.102578 4.553709
16.180096 -12.102578 4.560709
16.280096 -12.102578 4.5767088
16.380096 -12.102578 4.6057091
16.480097 -12.102578 4.600709
16.580095 -12.102578 4.606709
16.680096 -12.102578 4.6257091
16.780096 -12.102578 4.632709
16.880096 -12.102578 4.6547089
16.980097 -12.102578 4.665709
17.080095 -12.102578 4.678709
17.180096 -12.102578 4.6967092
17.280096 -12.102578 4.698709
17.380096 -12.102578 4.738709
17.480097 -12.102578 4.7307091
17.580095 -12.102578 4.757709
17.680096 -12.102578 4.7697091
17.780096 -12.102578 4.7917089
17.880096 -12.102578 4.7947092
17.980097 -12.102578 4.8207092
18.080095 -12.102578 4.8157091
18.180096 -12.102578 4.8417091
18.280096 -12.102578 4.8327088
18.380096 -12.102578 4.882709
18.480097 -12.102578 4.895709
18.580095 -12.102578 4.8987088
18.680096 -12.102578 4.9067092
18.780096 -12.102578 4.9127092
18.880096 -12.102578 4.9197092
18.980097 -12.102578 4.9477091
19.080095 -12.102578 4.9577088
19.180096 -12.102578 4.9857092
19.280096 -12.102578 4.9897089
19.380096 -12.102578 4.9847088
19.480097 -12.102578 5.0037088
19.580095 -12.102578 5.014709
19.680096 -12.102578 5.040709
19.780096 -12.102578 5.054709
19.880096 -12.102578 5.0567088
19.980097 -12.102578 5.0597091
20.080095 -12.102578 5.0817089
20.180096 -12.102578 5.1027088
20.280096 -12.102578 5.1227088
20.380096 -12.102578 5.1427088
20.480097 -12.102578 5.146709
20.580095 -12.102578 5.1577091
20.680096 -12.102578 5.172709
20.780096 -12.102578 5.1817088
20.880096 -12.102578 5.178709
20.980097 -12.102578 5.2017088
21.080095 -12.102578 5.1997089
21.180096 -12.102578 5.225709
21.280096 -12.102578 5.2167091
21.380096 -12.102578 5.2237091
21.480097 -12.102578 5.2527089
21.580095 -12.102578 5.2757092
21.680096 -12.102578 5.2787089
21.880096 -12.102578 5.1057091
-18.719904 -12.202578 1.210709
-18.219904 -12.202578 1.234709
-17.919905 -12.202578 1.252709
-17.519903 -12.202578 1.2637089
-17.219904 -12.202578 1.260709
-16.919905 -12.202578 1.259709
-14.119904 -12.202578 1.369709
-13.319904 -12.202578 1.425709
-12.219904 -12.202578 1.511709
-11.519904 -12.202578 1.583709
-11.019904 -12.202578 1.650709
-10.319904 -12.202578 1.749709
-9.3199043 -12.202578 1.855709
-9.0199041 -12.202578 1.876709
-7.9199042 -12.202578 2.0127089
-7.619904 -12.202578 2.066709
-7.4199042 -12.202578 2.0957091
-6.0199041 -12.202578 2.224709
-5.7199039 -12.202578 2.281709
-5.5199041 -12.202578 2.2917089
-5.2199039 -12.202578 2.3087089
-4.8199039 -12.202578 2.349709
-4.619904 -12.202578 2.359709
-4.3199039 -12.202578 2.4047091
-3.619904 -12.202578 2.4637091
-3.119904 -12.202578 2.4927089
-2.919904 -12.202578 2.5027089
-2.619904 -12.202578 2.5517089
-2.3199041 -12.202578 2.5797091
-2.0199039 -12.202578 2.5917089
-1.7199039 -12.202578 2.606709
-0.81990403 -12.202578 2.7167089
-0.61990398 -12.202578 2.7337091
-0.119904 -12.202578 2.7697091
0.180096 -12.202578 2.7917089
0.58009601 -12.202578 2.817709
0.88009602 -12.202578 2.8457091
1.080096 -12.202578 2.8517089
1.2800961 -12.202578 2.8677089
1.480096 -12.202578 2.8907089
1.680096 -12.202578 2.895709
1.880096 -12.202578 2.9167089
2.2800961 -12.202578 2.9467089
2.6800959 -12.202578 2.971709
2.880096 -12.202578 2.974709
3.080096 -12.202578 2.9957089
3.2800961 -12.202578 3.024709
3.6800959 -12.202578 3.0657091
4.0800958 -12.202578 3.1057091
4.4800959 -12.202578 3.1317091
4.6800961 -12.202578 3.168709
4.880096 -12.202578 3.1877091
5.380096 -12.202578 3.234709
5.5800958 -12.202578 3.2557089
5.880096 -12.202578 3.2767091
6.1800961 -12.202578 3.3027091
6.380096 -12.202578 3.320709
6.6800961 -12.202578 3.356709
6.880096 -12.202578 3.3807089
7.1800961 -12.202578 3.4137089
7.380096 -12.202578 3.4317091
7.5800958 -12.202578 3.4577091
7.7800961 -12.202578 3.494709
7.9800959 -12.202578 3.5027089
8.1800957 -12.202578 3.533709
8.4800959 -12.202578 3.5517089
8.7800961 -12.202578 3.5987091
8.9800959 -12.202578 3.6257091
9.1800957 -12.202578 3.6347089
9.4800959 -12.202578 3.6737089
9.6800957 -12.202578 3.7197089
10.080096 -12.202578 3.7787089
10.280096 -12.202578 3.8067091
10.380096 -12.202578 3.830709
10.680096 -12.202578 3.863709
10.880096 -12.202578 3.8917091
10.980096 -12.202578 3.9037089
11.180096 -12.202578 3.9337089
11.280096 -12.202578 3.9447091
11.380096 -12.202578 3.955709
11.480096 -12.202578 3.9667089
11.580096 -12.202578 4.0007091
11.680096 -12.202578 4.0137091
11.780096 -12.202578 4.0447092
11.880096 -12.202578 4.0327091
12.180096 -12.202578 4.0787091
12.280096 -12.202578 4.1117091
12.380096 -12.202578 4.1187091
12.480096 -12.202578 4.1417089
12.580096 -12.202578 4.158709
12.680096 -12.202578 4.1637092
12.780096 -12.202578 4.178709
12.880096 -12.202578 4.198709
12.980096 -12.202578 4.2107091
13.080096 -12.202578 4.2177091
13.180096 -12.202578 4.244709
13.280096 -12.202578 4.2437091
13.380096 -12.202578 4.2607088
13.480096 -12.202578 4.2787089
13.580096 -12.202578 4.2887092
13.680096 -12.202578 4.2877092
13.780096 -12.202578 4.3077092
13.880096 -12.202578 4.317709
13.980096 -12.202578 4.3247089
14.080096 -12.202578 4.3577089
14.180096 -12.202578 4.356709
14.280096 -12.202578 4.3617091
14.380096 -12.202578 4.3927088
14.480096 -12.202578 4.4047089
14.580096 -12.202578 4.4067092
14.680096 -12.202578 4.4057088
14.780096 -12.202578 4.4277091
14.880096 -12.202578 4.4537091
14.980096 -12.202578 4.455709
15.080096 -12.202578 4.4697089
15.180096 -12.202578 4.494709
15.280096 -12.202578 4.4847088
15.380096 -12.202578 4.4927092
15.480096 -12.202578 4.5367088
15.580096 -12.202578 4.5237088
15.680096 -12.202578 4.5427089
15.780096 -12.202578 4.5727091
15.880096 -12.202578 4.5707092
15.980096 -12.202578 4.5787091
16.080095 -12.202578 4.593709
16.180096 -12.202578 4.6097088
16.280096 -12.202578 4.600709
16.380096 -12.202578 4.6287088
16.480097 -12.202578 4.6577091
16.580095 -12.202578 4.6637092
16.680096 -12.202578 4.7037091
16.780096 -12.202578 4.6827092
16.880096 -12.202578 4.692709
16.980097 -12.202578 4.7097092
17.080095 -12.202578 4.737709
17.180096 -12.202578 4.7497091
17.280096 -12.202578 4.7487092
17.380096 -12.202578 4.7767091
17.480097 -12.202578 4.7947092
17.580095 -12.202578 4.8137088
17.680096 -12.202578 4.8157091
17.780096 -12.202578 4.8487091
17.880096 -12.202578 4.8357091
17.980097 -12.202578 4.8467088
18.080095 -12.202578 4.8667092
18.180096 -12.202578 4.8867092
18.280096 -12.202578 4.8997092
18.380096 -12.202578 4.9067092
18.480097 -12.202578 4.9217091
18.580095 -12.202578 4.9597092
18.680096 -12.202578 4.9567089
18.780096 -12.202578 4.9737091
18.880096 -12.202578 4.9767089
18.980097 -12.202578 4.9827089
19.080095 -12.202578 5.0177088
19.180096 -12.202578 5.034709
19.280096 -12.202578 5.0427089
19.380096 -12.202578 5.0617089
19.480097 -12.202578 5.0467091
19.580095 -12.202578 5.0567088
19.680096 -12.202578 5.087709
19.780096 -12.202578 5.087709
19.880096 -12.202578 5.1027088
19.980097 -12.202578 5.1207089
20.080095 -12.202578 5.1477089
20.180096 -12.202578 5.172709
20.280096 -12.202578 5.1577091
20.380096 -12.202578 5.172709
20.480097 -12.202578 5.2087088
20.580095 -12.202578 5.2347088
20.680096 -12.202578 5.231709
20.780096 -12.202578 5.2427092
20.880096 -12.202578 5.2527089
20.980097 -12.202578 5.2727089
21.080095 -12.202578 5.3057089
21.180096 -12.202578 5.310709
21.280096 -12.202578 5.3247089
21.380096 -12.202578 5.323709
21.480097 -12.202578 5.3587089
21.580095 -12.202578 5.317709
21.680096 -12.202578 5.2427092
-19.919905 -12.302578 1.155709
-19.619904 -12.302578 1.260709
-19.319904 -12.302578 1.249709
-16.619904 -12.302578 1.297709
-16.019903 -12.302578 1.3247091
-14.819904 -12.302578 1.376709
-14.519904 -12.302578 1.413709
-13.119904 -12.302578 1.5007091
-11.819904 -12.302578 1.560709
-11.419904 -12.302578 1.436709
-11.219904 -12.302578 1.6027091
-10.819904 -12.302578 1.677709
-9.9199038 -12.302578 1.787709
-9.5199041 -12.302578 1.843709
-8.8199043 -12.302578 1.918709
-8.6199036 -12.302578 1.937709
-8.3199043 -12.302578 1.993709
-7.2199039 -12.302578 2.1277089
-6.9199042 -12.302578 2.1487091
-6.7199039 -12.302578 2.1667089
-6.5199041 -12.302578 2.1807089
-6.3199039 -12.302578 2.2037089
-5.0199041 -12.302578 2.3197091
-3.8199041 -12.302578 2.4367089
-3.3199041 -12.302578 2.462709
-2.419904 -12.302578 2.563709
-1.819904 -12.302578 2.623709
-1.619904 -12.302578 2.6477089
-1.419904 -12.302578 2.675709
-1.119904 -12.302578 2.705709
-0.71990401 -12.302578 2.7037089
-0.51990402 -12.302578 2.7407091
-0.319904 -12.302578 2.7407091
-0.019904001 -12.302578 2.7737091
0.38009599 -12.302578 2.7917089
0.78009599 -12.302578 2.8477089
0.98009598 -12.302578 2.846709
1.380096 -12.302578 2.8747089
1.580096 -12.302578 2.862709
1.7800961 -12.302578 2.9117091
2.080096 -12.302578 2.928709
2.380096 -12.302578 2.9307089
2.580096 -12.302578 2.9567089
2.7800961 -12.302578 2.991709
2.9800961 -12.302578 3.0007091
3.1800959 -12.302578 3.0237091
3.4800961 -12.302578 3.0387089
3.7800961 -12.302578 3.090709
3.9800961 -12.302578 3.1057091
4.2800961 -12.302578 3.132709
4.9800959 -12.302578 3.2037089
5.1800961 -12.302578 3.231709
5.4800959 -12.302578 3.251709
5.6800961 -12.302578 3.2757089
5.9800959 -12.302578 3.3257091
6.2800961 -12.302578 3.3287089
6.4800959 -12.302578 3.3547089
7.0800958 -12.302578 3.4167089
7.880096 -12.302578 3.4907091
8.0800962 -12.302578 3.520709
8.2800961 -12.302578 3.5487089
8.5800962 -12.302578 3.590709
8.8800964 -12.302578 3.6217091
9.0800962 -12.302578 3.6407089
9.2800961 -12.302578 3.668709
9.5800962 -12.302578 3.7077091
9.7800961 -12.302578 3.734709
9.9800959 -12.302578 3.7597089
10.180096 -12.302578 3.7957089
10.480096 -12.302578 3.846709
10.680096 -12.302578 3.889709
10.880096 -12.302578 3.9167089
10.980096 -12.302578 3.9367089
11.080096 -12.302578 3.941709
11.180096 -12.302578 3.9667089
11.380096 -12.302578 3.9957089
11.480096 -12.302578 4.0117092
11.680096 -12.302578 4.0327091
11.780096 -12.302578 4.0577092
11.880096 -12.302578 4.067709
11.980096 -12.302578 4.1117091
12.080096 -12.302578 4.1367092
12.180096 -12.302578 4.1557088
12.280096 -12.302578 4.100709
12.380096 -12.302578 4.1347089
12.480096 -12.302578 4.165709
12.580096 -12.302578 4.1747088
12.680096 -12.302578 4.2027092
12.780096 -12.302578 4.2067089
12.880096 -12.302578 4.2267089
12.980096 -12.302578 4.2507091
13.080096 -12.302578 4.2657089
13.180096 -12.302578 4.2687092
13.280096 -12.302578 4.2887092
13.380096 -12.302578 4.3007088
13.480096 -12.302578 4.3077092
13.580096 -12.302578 4.3097091
13.680096 -12.302578 4.3297091
13.780096 -12.302578 4.3547091
13.880096 -12.302578 4.3547091
13.980096 -12.302578 4.3717089
14.080096 -12.302578 4.3777089
14.180096 -12.302578 4.3947091
14.280096 -12.302578 4.395709
14.380096 -12.302578 4.415709
14.480096 -12.302578 4.4377089
14.580096 -12.302578 4.4517088
14.680096 -12.302578 4.448709
14.780096 -12.302578 4.4537091
14.880096 -12.302578 4.4787092
14.980096 -12.302578 4.4767089
15.080096 -12.302578 4.5167089
15.180096 -12.302578 4.514709
15.280096 -12.302578 4.5307088
15.380096 -12.302578 4.547709
15.480096 -12.302578 4.560709
15.580096 -12.302578 4.5727091
15.680096 -12.302578 4.5947089
15.780096 -12.302578 4.5947089
15.880096 -12.302578 4.5957088
15.980096 -12.302578 4.6357088
16.080095 -12.302578 4.6417089
16.180096 -12.302578 4.6367092
16.280096 -12.302578 4.6617088
16.380096 -12.302578 4.685709
16.480097 -12.302578 4.6947088
16.580095 -12.302578 4.685709
16.680096 -12.302578 4.692709
16.780096 -12.302578 4.737709
16.880096 -12.302578 4.751709
16.980097 -12.302578 4.7657089
17.080095 -12.302578 4.7827091
17.180096 -12.302578 4.7807088
17.280096 -12.302578 4.8077092
17.380096 -12.302578 4.836709
17.480097 -12.302578 4.8297091
17.580095 -12.302578 4.8647089
17.680096 -12.302578 4.8817091
17.780096 -12.302578 4.8817091
17.880096 -12.302578 4.8887091
17.980097 -12.302578 4.9047089
18.080095 -12.302578 4.9317088
18.180096 -12.302578 4.9607091
18.280096 -12.302578 4.9707088
18.380096 -12.302578 4.9677091
18.480097 -12.302578 4.9827089
18.580095 -12.302578 4.9987092
18.680096 -12.302578 5.0187092
18.780096 -12.302578 5.0157089
18.880096 -12.302578 5.0317092
18.980097 -12.302578 5.047709
19.080095 -12.302578 5.0527091
19.180096 -12.302578 5.0637088
19.280096 -12.302578 5.087709
19.380096 -12.302578 5.1037092
19.480097 -12.302578 5.0917091
19.580095 -12.302578 5.1237092
19.680096 -12.302578 5.133709
19.780096 -12.302578 5.158709
19.880096 -12.302578 5.1677089
19.980097 -12.302578 5.179709
20.080095 -12.302578 5.1947088
20.180096 -12.302578 5.2007089
20.280096 -12.302578 5.2347088
20.380096 -12.302578 5.2287092
20.480097 -12.302578 5.2407088
20.580095 -12.302578 5.2537088
20.680096 -12.302578 5.2867088
20.780096 -12.302578 5.3007088
20.880096 -12.302578 5.3397088
20.980097 -12.302578 5.3257089
21.080095 -12.302578 5.336709
21.180096 -12.302578 5.3477092
21.280096 -12.302578 5.362709
21.380096 -12.302578 5.383709
21.480097 -12.302578 5.3337088
21.580095 -12.302578 5.2617092
-19.119904 -12.402578 1.223709
-18.519903 -12.402578 1.311709
-17.719904 -12.402578 1.309709
-16.219904 -12.402578 1.374709
-15.419904 -12.402578 1.384709
-15.119904 -12.402578 1.269709
-13.719904 -12.402578 1.455709
-11.019904 -12.402578 1.654709
-9.7199039 -12.402578 1.835709
-9.0199041 -12.402578 1.884709
-8.0199041 -12.402578 2.031709
-7.8199039 -12.402578 2.0587089
-7.4199042 -12.402578 2.0927091
-6.0199041 -12.402578 2.2327089
-5.8199039 -12.402578 2.2657089
-5.619904 -12.402578 2.2827089
-4.8199039 -12.402578 2.340709
-4.619904 -12.402578 2.3687091
-4.3199039 -12.402578 2.395709
-4.119904 -12.402578 2.408709
-2.8199041 -12.402578 2.5137091
-1.919904 -12.402578 2.593709
-1.519904 -12.402578 2.6347089
-1.2199039 -12.402578 2.655709
-0.91990399 -12.402578 2.6867089
-0.61990398 -12.402578 2.7367091
-0.41990399 -12.402578 2.725709
-0.21990401 -12.402578 2.7497089
0.180096 -12.402578 2.7897091
0.48009601 -12.402578 2.7927091
0.68009597 -12.402578 2.8147089
0.88009602 -12.402578 2.8447089
1.180096 -12.402578 2.8617091
1.480096 -12.402578 2.8777089
1.680096 -12.402578 2.9007089
1.980096 -12.402578 2.9247091
2.1800959 -12.402578 2.9467089
2.4800961 -12.402578 2.958709
2.6800959 -12.402578 2.962709
2.880096 -12.402578 3.0007091
3.080096 -12.402578 3.0187089
3.380096 -12.402578 3.043709
3.580096 -12.402578 3.0687089
3.880096 -12.402578 3.0857091
4.0800958 -12.402578 3.122709
4.380096 -12.402578 3.149709
4.5800958 -12.402578 3.1717091
4.7800961 -12.402578 3.1937089
5.2800961 -12.402578 3.2457089
5.5800958 -12.402578 3.284709
5.7800961 -12.402578 3.304709
6.1800961 -12.402578 3.3417089
6.380096 -12.402578 3.3457091
6.5800958 -12.402578 3.372709
6.7800961 -12.402578 3.383709
6.9800959 -12.402578 3.419709
7.2800961 -12.402578 3.4547091
7.4800959 -12.402578 3.4707091
7.6800961 -12.402578 3.497709
7.9800959 -12.402578 3.524709
8.4800959 -12.402578 3.5947089
8.7800961 -12.402578 3.636709
8.9800959 -12.402578 3.6607089
9.1800957 -12.402578 3.6877091
9.4800959 -12.402578 3.721709
9.6800957 -12.402578 3.7687089
9.8800964 -12.402578 3.793709
10.080096 -12.402578 3.8147089
10.180096 -12.402578 3.8487091
10.380096 -12.402578 3.8677089
10.580096 -12.402578 3.885709
10.680096 -12.402578 3.908709
10.780096 -12.402578 3.942709
10.980096 -12.402578 3.9597089
11.180096 -12.402578 3.984709
11.280096 -12.402578 3.9957089
11.380096 -12.402578 4.0117092
11.480096 -12.402578 4.0457091
11.580096 -12.402578 4.0687089
11.780096 -12.402578 4.0747089
11.880096 -12.402578 4.0637088
11.980096 -12.402578 4.1017089
12.080096 -12.402578 4.1187091
12.180096 -12.402578 4.1417089
12.280096 -12.402578 4.1807089
12.380096 -12.402578 4.1887088
12.480096 -12.402578 4.2047091
12.580096 -12.402578 4.2277088
12.680096 -12.402578 4.2397089
12.780096 -12.402578 4.2637091
12.880096 -12.402578 4.2727089
12.980096 -12.402578 4.2747092
13.080096 -12.402578 4.290709
13.180096 -12.402578 4.2987089
13.280096 -12.402578 4.3217092
13.380096 -12.402578 4.3227091
13.480096 -12.402578 4.323709
13.580096 -12.402578 4.356709
13.680096 -12.402578 4.3687091
13.780096 -12.402578 4.3847089
13.880096 -12.402578 4.4017091
13.980096 -12.402578 4.4057088
14.080096 -12.402578 4.415709
14.180096 -12.402578 4.4257088
14.280096 -12.402578 4.4327092
14.380096 -12.402578 4.4397092
14.480096 -12.402578 4.4567089
14.580096 -12.402578 4.501709
14.680096 -12.402578 4.5167089
14.780096 -12.402578 4.5257092
14.880096 -12.402578 4.520709
14.980096 -12.402578 4.5507088
15.080096 -12.402578 4.5597091
15.180096 -12.402578 4.5747089
15.280096 -12.402578 4.5837088
15.380096 -12.402578 4.586709
15.480096 -12.402578 4.5917091
15.580096 -12.402578 4.5987091
15.680096 -12.402578 4.6207089
15.780096 -12.402578 4.6487088
15.880096 -12.402578 4.6577091
15.980096 -12.402578 4.6637092
16.080095 -12.402578 4.6717091
16.180096 -12.402578 4.6897092
16.280096 -12.402578 4.725709
16.380096 -12.402578 4.731709
16.480097 -12.402578 4.7367091
16.580095 -12.402578 4.7337089
16.680096 -12.402578 4.7617092
16.780096 -12.402578 4.7757092
16.880096 -12.402578 4.7937088
16.980097 -12.402578 4.8207092
17.080095 -12.402578 4.8357091
17.180096 -12.402578 4.8537092
17.280096 -12.402578 4.8707089
17.380096 -12.402578 4.8857088
17.480097 -12.402578 4.9147091
17.580095 -12.402578 4.9177089
17.680096 -12.402578 4.9477091
17.780096 -12.402578 4.9467092
17.880096 -12.402578 4.9657092
17.980097 -12.402578 4.9597092
18.080095 -12.402578 4.9587088
18.180096 -12.402578 4.9767089
18.280096 -12.402578 5.001709
18.380096 -12.402578 5.0037088
18.480097 -12.402578 5.001709
18.580095 -12.402578 5.0287089
18.680096 -12.402578 5.0487089
18.780096 -12.402578 5.0577092
18.880096 -12.402578 5.0917091
18.980097 -12.402578 5.0917091
19.080095 -12.402578 5.1097088
19.180096 -12.402578 5.1307092
19.280096 -12.402578 5.1257091
19.380096 -12.402578 5.1347089
19.480097 -12.402578 5.159709
19.580095 -12.402578 5.178709
19.680096 -12.402578 5.2167091
19.780096 -12.402578 5.225709
19.880096 -12.402578 5.244709
19.980097 -12.402578 5.2507091
20.080095 -12.402578 5.257709
20.180096 -12.402578 5.2627091
20.280096 -12.402578 5.2677088
20.380096 -12.402578 5.2917089
20.480097 -12.402578 5.2747092
20.580095 -12.402578 5.3057089
20.680096 -12.402578 5.336709
20.780096 -12.402578 5.330709
20.880096 -12.402578 5.3447089
20.980097 -12.402578 5.3477092
21.080095 -12.402578 5.3857088
21.180096 -12.402578 5.3787088
21.280096 -12.402578 5.3247089
21.380096 -12.402578 5.1967092
21.480097 -12.402578 5.112709
-19.319904 -12.502578 1.047709
-18.919905 -12.502578 1.203709
-17.419905 -12.502578 1.341709
-17.119904 -12.502578 1.374709
-16.919905 -12.502578 1.392709
-16.719904 -12.502578 1.396709
-14.519904 -12.502578 1.412709
-14.219904 -12.502578 1.456709
-13.919904 -12.502578 1.350709
-10.819904 -12.502578 1.686709
-10.519904 -12.502578 1.749709
-10.319904 -12.502578 1.777709
-10.019904 -12.502578 1.839709
-9.2199039 -12.502578 1.8937089
-8.8199043 -12.502578 1.928709
-8.5199041 -12.502578 1.9957089
-8.3199043 -12.502578 2.001709
-7.619904 -12.502578 2.086709
-7.2199039 -12.502578 2.1207089
-7.0199041 -12.502578 2.1417091
-6.5199041 -12.502578 2.1777091
-6.2199039 -12.502578 2.2007091
-5.3199039 -12.502578 2.2827089
-3.8199041 -12.502578 2.4377091
-3.619904 -12.502578 2.4547091
-3.419904 -12.502578 2.4677091
-3.119904 -12.502578 2.4897089
-2.619904 -12.502578 2.537709
-2.419904 -12.502578 2.5627091
-2.119904 -12.502578 2.580709
-1.819904 -12.502578 2.622709
-1.419904 -12.502578 2.656709
-1.119904 -12.502578 2.679709
-0.71990401 -12.502578 2.7167089
-0.119904 -12.502578 2.747709
0.38009599 -12.502578 2.7927091
0.58009601 -12.502578 2.810709
0.78009599 -12.502578 2.8227091
0.98009598 -12.502578 2.8417089
1.380096 -12.502578 2.873709
1.880096 -12.502578 2.919709
2.080096 -12.502578 2.9217091
2.2800961 -12.502578 2.9447091
2.580096 -12.502578 2.974709
2.7800961 -12.502578 2.9797089
2.9800961 -12.502578 2.9957089
3.2800961 -12.502578 3.033709
3.4800961 -12.502578 3.0727091
3.7800961 -12.502578 3.090709
3.9800961 -12.502578 3.1187091
4.1800961 -12.502578 3.146709
4.6800961 -12.502578 3.1907091
4.880096 -12.502578 3.2167089
5.0800958 -12.502578 3.2337091
5.4800959 -12.502578 3.277709
5.6800961 -12.502578 3.2887089
5.9800959 -12.502578 3.316709
6.2800961 -12.502578 3.369709
6.4800959 -12.502578 3.382709
6.6800961 -12.502578 3.4007089
6.880096 -12.502578 3.422709
7.0800958 -12.502578 3.438709
7.380096 -12.502578 3.4797089
7.5800958 -12.502578 3.498709
7.7800961 -12.502578 3.521709
8.1800957 -12.502578 3.570709
8.5800962 -12.502578 3.629709
8.6800957 -12.502578 3.658709
8.8800964 -12.502578 3.665709
9.0800962 -12.502578 3.6977091
9.2800961 -12.502578 3.7267089
9.4800959 -12.502578 3.7567091
9.7800961 -12.502578 3.7917089
9.9800959 -12.502578 3.8317089
10.280096 -12.502578 3.872709
10.480096 -12.502578 3.9177091
10.680096 -12.502578 3.9407091
10.880096 -12.502578 3.975709
11.080096 -12.502578 3.997709
11.180096 -12.502578 4.0257092
11.280096 -12.502578 4.0297089
11.480096 -12.502578 4.0617089
11.580096 -12.502578 4.093709
11.680096 -12.502578 4.0757089
11.780096 -12.502578 4.1157088
11.880096 -12.502578 4.1387091
11.980096 -12.502578 4.146709
12.080096 -12.502578 4.1617088
12.180096 -12.502578 4.1897092
12.280096 -12.502578 4.1947088
12.380096 -12.502578 4.2177091
12.480096 -12.502578 4.2397089
12.580096 -12.502578 4.2307091
12.680096 -12.502578 4.2727089
12.780096 -12.502578 4.2637091
12.880096 -12.502578 4.290709
12.980096 -12.502578 4.3097091
13.080096 -12.502578 4.323709
13.180096 -12.502578 4.3317089
13.280096 -12.502578 4.343709
13.380096 -12.502578 4.343709
13.480096 -12.502578 4.3777089
13.580096 -12.502578 4.3937092
13.680096 -12.502578 4.3927088
13.780096 -12.502578 4.4077091
13.880096 -12.502578 4.422709
13.980096 -12.502578 4.4457092
14.080096 -12.502578 4.4587088
14.180096 -12.502578 4.4517088
14.280096 -12.502578 4.4697089
14.380096 -12.502578 4.4897089
14.480096 -12.502578 4.5167089
14.580096 -12.502578 4.5097089
14.680096 -12.502578 4.5397091
14.780096 -12.502578 4.5437088
14.880096 -12.502578 4.5787091
14.980096 -12.502578 4.5717092
15.080096 -12.502578 4.587709
15.180096 -12.502578 4.6027088
15.280096 -12.502578 4.6437092
15.380096 -12.502578 4.6417089
15.480096 -12.502578 4.6447091
15.580096 -12.502578 4.672709
15.680096 -12.502578 4.7097092
15.780096 -12.502578 4.7167091
15.880096 -12.502578 4.7137089
15.980096 -12.502578 4.738709
16.080095 -12.502578 4.7597089
16.180096 -12.502578 4.7797089
16.280096 -12.502578 4.770709
16.380096 -12.502578 4.7727089
16.480097 -12.502578 4.7807088
16.580095 -12.502578 4.8147092
16.680096 -12.502578 4.8427091
16.780096 -12.502578 4.8467088
16.880096 -12.502578 4.862709
16.980097 -12.502578 4.8607092
17.080095 -12.502578 4.8857088
17.180096 -12.502578 4.8887091
17.280096 -12.502578 4.9187088
17.380096 -12.502578 4.9347091
17.480097 -12.502578 4.9527092
17.580095 -12.502578 4.974709
17.680096 -12.502578 4.9577088
17.780096 -12.502578 4.9937091
17.880096 -12.502578 4.9987092
17.980097 -12.502578 5.0257092
18.080095 -12.502578 5.020709
18.180096 -12.502578 5.0597091
18.280096 -12.502578 5.0697088
18.380096 -12.502578 5.067709
18.480097 -12.502578 5.0727091
18.580095 -12.502578 5.0977092
18.680096 -12.502578 5.087709
18.780096 -12.502578 5.119709
18.880096 -12.502578 5.1287088
18.980097 -12.502578 5.1407089
19.080095 -12.502578 5.1367092
19.180096 -12.502578 5.1487088
19.280096 -12.502578 5.172709
19.380096 -12.502578 5.185709
19.480097 -12.502578 5.2027092
19.580095 -12.502578 5.2357092
19.680096 -12.502578 5.257709
19.780096 -12.502578 5.2557092
19.880096 -12.502578 5.2737088
19.980097 -12.502578 5.2797089
20.080095 -12.502578 5.2947092
20.180096 -12.502578 5.3297091
20.280096 -12.502578 5.3457088
20.380096 -12.502578 5.3287091
20.480097 -12.502578 5.3527088
20.580095 -12.502578 5.362709
20.680096 -12.502578 5.4067092
20.780096 -12.502578 5.383709
20.880096 -12.502578 5.4057088
20.980097 -12.502578 5.402709
21.080095 -12.502578 5.3587089
21.180096 -12.502578 5.283709
-19.219904 -12.602578 0.83270901
-18.919905 -12.602578 0.99470901
-18.419905 -12.602578 1.3657089
-18.119904 -12.602578 1.396709
-17.919905 -12.602578 1.390709
-16.519903 -12.602578 1.389709
-16.119904 -12.602578 1.458709
-15.919904 -12.602578 1.453709
-15.719904 -12.602578 1.475709
-15.519904 -12.602578 1.466709
-10.719904 -12.602578 1.5747091
-10.119904 -12.602578 1.635709
-9.8199043 -12.602578 1.874709
-6.7199039 -12.602578 2.191709
-6.0199041 -12.602578 2.2437091
-5.8199039 -12.602578 2.270709
-5.619904 -12.602578 2.2797091
-5.0199041 -12.602578 2.3327091
-4.5199041 -12.602578 2.359709
-4.0199041 -12.602578 2.4107089
-2.919904 -12.602578 2.5037091
-1.619904 -12.602578 2.6077089
-0.51990402 -12.602578 2.7407091
-0.21990401 -12.602578 2.7427089
0.080095999 -12.602578 2.7787089
0.28009599 -12.602578 2.7927091
0.48009601 -12.602578 2.8087089
0.88009602 -12.602578 2.8287089
1.080096 -12.602578 2.8557091
1.580096 -12.602578 2.9017091
2.1800959 -12.602578 2.955709
2.4800961 -12.602578 2.9777091
2.6800959 -12.602578 3.0027089
2.880096 -12.602578 3.0157089
3.1800959 -12.602578 3.0387089
3.380096 -12.602578 3.050709
3.580096 -12.602578 3.0787089
3.880096 -12.602578 3.112709
4.2800961 -12.602578 3.1517091
4.4800959 -12.602578 3.172709
4.9800959 -12.602578 3.2267089
5.2800961 -12.602578 3.2627089
5.880096 -12.602578 3.3097091
6.0800958 -12.602578 3.3387091
6.380096 -12.602578 3.3617091
6.7800961 -12.602578 3.4277091
6.9800959 -12.602578 3.442709
7.2800961 -12.602578 3.5057089
7.4800959 -12.602578 3.5197091
7.6800961 -12.602578 3.5417089
7.880096 -12.602578 3.554709
8.0800962 -12.602578 3.587709
8.3800964 -12.602578 3.629709
8.5800962 -12.602578 3.6717091
8.7800961 -12.602578 3.695709
9.0800962 -12.602578 3.7427089
9.3800964 -12.602578 3.7767091
9.5800962 -12.602578 3.8147089
9.8800964 -12.602578 3.8477089
10.180096 -12.602578 3.892709
10.380096 -12.602578 3.9247091
10.480096 -12.602578 3.945709
10.580096 -12.602578 3.9677091
10.680096 -12.602578 3.981709
10.780096 -12.602578 4.001709
10.880096 -12.602578 4.0177088
10.980096 -12.602578 4.0387092
11.080096 -12.602578 4.0397091
11.180096 -12.602578 4.0637088
11.280096 -12.602578 4.080709
11.380096 -12.602578 4.106709
11.480096 -12.602578 4.1247091
11.580096 -12.602578 4.1357088
11.680096 -12.602578 4.139709
11.780096 -12.602578 4.1557088
11.880096 -12.602578 4.1807089
11.980096 -12.602578 4.1937089
12.080096 -12.602578 4.2047091
12.180096 -12.602578 4.2097092
12.280096 -12.602578 4.2417092
12.380096 -12.602578 4.2627091
12.480096 -12.602578 4.2677088
12.580096 -12.602578 4.2787089
12.680096 -12.602578 4.283709
12.780096 -12.602578 4.303709
12.880096 -12.602578 4.3207092
12.980096 -12.602578 4.316709
13.080096 -12.602578 4.3547091
13.180096 -12.602578 4.349709
13.280096 -12.602578 4.3667092
13.380096 -12.602578 4.3947091
13.480096 -12.602578 4.4047089
13.580096 -12.602578 4.4237089
13.680096 -12.602578 4.4397092
13.780096 -12.602578 4.4597092
13.880096 -12.602578 4.4647088
13.980096 -12.602578 4.4787092
14.080096 -12.602578 4.4937091
14.180096 -12.602578 4.5047088
14.280096 -12.602578 4.5237088
14.380096 -12.602578 4.5597091
14.480096 -12.602578 4.560709
14.580096 -12.602578 4.566709
14.680096 -12.602578 4.5817089
14.780096 -12.602578 4.599709
14.880096 -12.602578 4.6177092
14.980096 -12.602578 4.6157088
15.080096 -12.602578 4.6317091
15.180096 -12.602578 4.6557088
15.280096 -12.602578 4.6697092
15.380096 -12.602578 4.6967092
15.480096 -12.602578 4.711709
15.580096 -12.602578 4.7297091
15.680096 -12.602578 4.7327089
15.780096 -12.602578 4.7487092
15.880096 -12.602578 4.7687092
15.980096 -12.602578 4.7807088
16.080095 -12.602578 4.7857089
16.180096 -12.602578 4.8087091
16.280096 -12.602578 4.8457088
16.380096 -12.602578 4.8467088
16.480097 -12.602578 4.8717089
16.580095 -12.602578 4.862709
16.680096 -12.602578 4.8867092
16.780096 -12.602578 4.908709
16.880096 -12.602578 4.909709
16.980097 -12.602578 4.942709
17.080095 -12.602578 4.9457092
17.180096 -12.602578 4.9647088
17.280096 -12.602578 4.9867091
17.380096 -12.602578 5.0027089
17.480097 -12.602578 4.9917092
17.580095 -12.602578 5.0177088
17.680096 -12.602578 5.0307088
17.780096 -12.602578 5.0487089
17.880096 -12.602578 5.0627089
17.980097 -12.602578 5.0597091
18.080095 -12.602578 5.1017089
18.180096 -12.602578 5.0847092
18.280096 -12.602578 5.0957088
18.380096 -12.602578 5.1257091
18.480097 -12.602578 5.1297088
18.580095 -12.602578 5.133709
18.680096 -12.602578 5.1477089
18.780096 -12.602578 5.1617088
18.880096 -12.602578 5.1967092
18.980097 -12.602578 5.2027092
19.080095 -12.602578 5.2067089
19.180096 -12.602578 5.2407088
19.280096 -12.602578 5.2617092
19.380096 -12.602578 5.2567091
19.480097 -12.602578 5.2797089
19.580095 -12.602578 5.3027091
19.680096 -12.602578 5.3087091
19.780096 -12.602578 5.3077092
19.880096 -12.602578 5.3347092
19.980097 -12.602578 5.363709
20.080095 -12.602578 5.3327088
20.180096 -12.602578 5.4007092
20.280096 -12.602578 5.383709
20.380096 -12.602578 5.4047089
20.480097 -12.602578 5.396709
20.580095 -12.602578 5.4307089
20.680096 -12.602578 5.455709
20.780096 -12.602578 5.4607091
20.880096 -12.602578 5.435709
20.980097 -12.602578 5.343709
21.080095 -12.602578 5.2687092
-17.719904 -12.702578 1.407709
-17.519903 -12.702578 1.411709
-16.519903 -12.702578 1.1257091
-16.219904 -12.702578 1.218709
-15.619904 -12.702578 1.359709
-9.5199041 -12.702578 1.9167089
-9.2199039 -12.702578 1.951709
-9.0199041 -12.702578 1.966709
-8.8199043 -12.702578 1.9827091
-8.6199036 -12.702578 2.0007091
-8.4199038 -12.702578 2.021709
-8.1199036 -12.702578 2.0557089
-7.8199039 -12.702578 2.0827091
-7.5199041 -12.702578 2.116709
-7.2199039 -12.702578 2.152709
-7.0199041 -12.702578 2.1547091
-6.4199042 -12.702578 2.228709
-6.2199039 -12.702578 2.225709
-5.3199039 -12.702578 2.310709
-4.7199039 -12.702578 2.3577089
-4.3199039 -12.702578 2.396709
-3.419904 -12.702578 2.448709
-3.2199039 -12.702578 2.4767089
-2.3199041 -12.702578 2.557709
-2.119904 -12.702578 2.583709
-1.919904 -12.702578 2.5987091
-1.7199039 -12.702578 2.6257091
-1.519904 -12.702578 2.6507089
-1.319904 -12.702578 2.659709
-0.91990399 -12.702578 2.6947091
-0.61990398 -12.702578 2.7277091
-0.319904 -12.702578 2.735709
0.180096 -12.702578 2.7787089
0.38009599 -12.702578 2.7887089
0.68009597 -12.702578 2.8287089
0.98009598 -12.702578 2.849709
1.2800961 -12.702578 2.882709
1.7800961 -12.702578 2.922709
1.980096 -12.702578 2.9467089
2.380096 -12.702578 2.974709
2.580096 -12.702578 2.9997089
2.7800961 -12.702578 3.0097089
3.080096 -12.702578 3.043709
3.2800961 -12.702578 3.0657091
3.4800961 -12.702578 3.093709
3.7800961 -12.702578 3.1077089
4.0800958 -12.702578 3.1677091
4.380096 -12.702578 3.1867089
4.5800958 -12.702578 3.1997089
4.7800961 -12.702578 3.2277091
5.0800958 -12.702578 3.2597089
5.380096 -12.702578 3.284709
5.5800958 -12.702578 3.2987089
5.7800961 -12.702578 3.326709
5.9800959 -12.702578 3.3457091
6.2800961 -12.702578 3.386709
6.5800958 -12.702578 3.4247091
7.0800958 -12.702578 3.4727089
7.380096 -12.702578 3.494709
7.7800961 -12.702578 3.5647089
8.1800957 -12.702578 3.629709
8.6800957 -12.702578 3.701709
8.9800959 -12.702578 3.747709
9.2800961 -12.702578 3.7787089
9.3800964 -12.702578 3.804709
9.5800962 -12.702578 3.846709
9.7800961 -12.702578 3.863709
9.8800964 -12.702578 3.8807089
10.080096 -12.702578 3.908709
10.180096 -12.702578 3.9307089
10.280096 -12.702578 3.9737091
10.380096 -12.702578 3.985709
10.480096 -12.702578 3.9807091
10.580096 -12.702578 4.001709
10.680096 -12.702578 4.0247092
10.780096 -12.702578 4.0247092
10.880096 -12.702578 4.0587091
10.980096 -12.702578 4.0647092
11.080096 -12.702578 4.086709
11.180096 -12.702578 4.0897088
11.280096 -12.702578 4.119709
11.380096 -12.702578 4.1287088
11.480096 -12.702578 4.145709
11.580096 -12.702578 4.1607089
11.680096 -12.702578 4.1667089
11.780096 -12.702578 4.1887088
11.880096 -12.702578 4.212709
11.980096 -12.702578 4.224709
12.180096 -12.702578 4.237709
12.380096 -12.702578 4.2827091
12.480096 -12.702578 4.3057089
12.580096 -12.702578 4.310709
12.680096 -12.702578 4.3297091
12.780096 -12.702578 4.3427091
12.880096 -12.702578 4.3677092
12.980096 -12.702578 4.3817091
13.080096 -12.702578 4.389709
13.180096 -12.702578 4.4187088
13.280096 -12.702578 4.4337091
13.380096 -12.702578 4.4397092
13.480096 -12.702578 4.442709
13.580096 -12.702578 4.4777088
13.680096 -12.702578 4.4847088
13.780096 -12.702578 4.4987092
13.880096 -12.702578 4.5067091
13.980096 -12.702578 4.5057092
14.080096 -12.702578 4.5157089
14.180096 -12.702578 4.5527091
14.280096 -12.702578 4.5757089
14.380096 -12.702578 4.5847092
14.480096 -12.702578 4.5897088
14.580096 -12.702578 4.599709
14.680096 -12.702578 4.600709
14.780096 -12.702578 4.6387091
14.880096 -12.702578 4.658709
14.980096 -12.702578 4.6757088
15.080096 -12.702578 4.698709
15.180096 -12.702578 4.7097092
15.280096 -12.702578 4.7307091
15.380096 -12.702578 4.757709
15.480096 -12.702578 4.7557092
15.580096 -12.702578 4.771709
15.680096 -12.702578 4.7817092
15.780096 -12.702578 4.810709
15.880096 -12.702578 4.8427091
15.980096 -12.702578 4.8357091
16.080095 -12.702578 4.8577089
16.180096 -12.702578 4.8797088
16.280096 -12.702578 4.876709
16.380096 -12.702578 4.8757091
16.480097 -12.702578 4.9147091
16.580095 -12.702578 4.9237089
16.680096 -12.702578 4.9237089
16.780096 -12.702578 4.942709
16.880096 -12.702578 4.9517088
16.980097 -12.702578 4.9767089
17.080095 -12.702578 4.9857092
17.180096 -12.702578 4.9797091
17.280096 -12.702578 5.007709
17.380096 -12.702578 5.0307088
17.480097 -12.702578 5.054709
17.580095 -12.702578 5.0617089
17.680096 -12.702578 5.054709
17.780096 -12.702578 5.0847092
17.880096 -12.702578 5.0907092
17.980097 -12.702578 5.1227088
18.080095 -12.702578 5.1187091
18.180096 -12.702578 5.133709
18.280096 -12.702578 5.152709
18.380096 -12.702578 5.2017088
18.480097 -12.702578 5.2177091
18.580095 -12.702578 5.1947088
18.680096 -12.702578 5.2207088
18.780096 -12.702578 5.2287092
18.880096 -12.702578 5.2557092
18.980097 -12.702578 5.2757092
19.080095 -12.702578 5.3007088
19.180096 -12.702578 5.3067088
19.280096 -12.702578 5.3017092
19.380096 -12.702578 5.3147092
19.480097 -12.702578 5.3077092
19.580095 -12.702578 5.3227091
19.680096 -12.702578 5.3387089
19.780096 -12.702578 5.3577089
19.880096 -12.702578 5.4067092
19.980097 -12.702578 5.3997092
20.080095 -12.702578 5.4167089
20.180096 -12.702578 5.4497089
20.280096 -12.702578 5.4597092
20.380096 -12.702578 5.4267092
20.480097 -12.702578 5.487709
20.580095 -12.702578 5.461709
20.680096 -12.702578 5.396709
20.780096 -12.702578 5.2857089
20.880096 -12.702578 5.251709
-17.519903 -12.802578 1.235709
-9.9199038 -12.802578 1.7687089
-9.7199039 -12.802578 1.956709
-6.8199039 -12.802578 2.1937089
-6.619904 -12.802578 2.202709
-5.619904 -12.802578 2.2917089
-5.119904 -12.802578 2.349709
-4.9199042 -12.802578 2.359709
-4.119904 -12.802578 2.4137089
-3.919904 -12.802578 2.4277091
-3.619904 -12.802578 2.4597089
-3.0199039 -12.802578 2.5037091
-2.8199041 -12.802578 2.530709
-2.619904 -12.802578 2.5397091
-1.419904 -12.802578 2.652709
-1.2199039 -12.802578 2.6647091
-1.019904 -12.802578 2.669709
-0.71990401 -12.802578 2.7007091
-0.51990402 -12.802578 2.7457089
-0.21990401 -12.802578 2.7557089
-0.019904001 -12.802578 2.7687089
0.58009601 -12.802578 2.8247089
0.78009599 -12.802578 2.833709
1.080096 -12.802578 2.869709
1.480096 -12.802578 2.9047091
1.680096 -12.802578 2.9267089
1.880096 -12.802578 2.941709
2.080096 -12.802578 2.962709
2.2800961 -12.802578 2.9797089
2.4800961 -12.802578 2.987709
2.880096 -12.802578 3.0357089
3.1800959 -12.802578 3.0557089
3.380096 -12.802578 3.0817089
3.6800959 -12.802578 3.1047089
3.880096 -12.802578 3.126709
4.2800961 -12.802578 3.165709
4.9800959 -12.802578 3.2567091
5.1800961 -12.802578 3.267709
5.4800959 -12.802578 3.3087089
5.880096 -12.802578 3.350709
6.1800961 -12.802578 3.3807089
6.4800959 -12.802578 3.4117091
6.6800961 -12.802578 3.4377091
6.880096 -12.802578 3.4707091
7.2800961 -12.802578 3.5257089
7.380096 -12.802578 3.5487089
7.5800958 -12.802578 3.5557089
7.9800959 -12.802578 3.6277089
8.2800961 -12.802578 3.6937089
8.4800959 -12.802578 3.7047091
8.6800957 -12.802578 3.734709
8.8800964 -12.802578 3.7697091
9.0800962 -12.802578 3.7897091
9.3800964 -12.802578 3.8457091
9.5800962 -12.802578 3.869709
9.7800961 -12.802578 3.8877089
9.9800959 -12.802578 3.9317091
10.080096 -12.802578 3.961709
10.180096 -12.802578 3.9667089
10.380096 -12.802578 3.994709
10.580096 -12.802578 4.0297089
10.680096 -12.802578 4.0397091
10.780096 -12.802578 4.0647092
10.880096 -12.802578 4.0917091
10.980096 -12.802578 4.100709
11.080096 -12.802578 4.1117091
11.280096 -12.802578 4.1477089
11.380096 -12.802578 4.1767092
11.480096 -12.802578 4.1897092
11.580096 -12.802578 4.1957092
11.680096 -12.802578 4.2067089
11.780096 -12.802578 4.2307091
11.880096 -12.802578 4.244709
11.980096 -12.802578 4.2597089
12.080096 -12.802578 4.2787089
12.180096 -12.802578 4.2957091
12.280096 -12.802578 4.3067088
12.380096 -12.802578 4.3217092
12.480096 -12.802578 4.3337088
12.580096 -12.802578 4.3547091
12.680096 -12.802578 4.3757091
12.780096 -12.802578 4.3777089
12.880096 -12.802578 4.4077091
12.980096 -12.802578 4.429709
13.080096 -12.802578 4.4387088
13.180096 -12.802578 4.4497089
13.280096 -12.802578 4.4697089
13.380096 -12.802578 4.4697089
13.480096 -12.802578 4.5007091
13.580096 -12.802578 4.5007091
13.680096 -12.802578 4.5257092
13.780096 -12.802578 4.5377092
13.880096 -12.802578 4.5527091
13.980096 -12.802578 4.5837088
14.080096 -12.802578 4.5777092
14.180096 -12.802578 4.6117091
14.280096 -12.802578 4.5957088
14.380096 -12.802578 4.6097088
14.480096 -12.802578 4.6377091
14.580096 -12.802578 4.658709
