# .PCD v0.7 - Point Cloud Data file format
VERSION 0.7
FIELDS x y z
SIZE 4 4 4
TYPE F F F
COUNT 1 1 1
WIDTH 1554
HEIGHT 1
VIEWPOINT 0 0 0 1 0 0 0
POINTS 1554
DATA ascii
-7.0199041 -9.7025776 2.3247089
-5.7199039 -9.7025776 2.4317091
-4.0199041 -9.7025776 2.534709
-2.3199041 -9.7025776 2.6507089
-1.619904 -9.7025776 2.692709
1.380096 -9.7025776 2.8187089
3.1800959 -9.7025776 2.885709
3.7800961 -9.7025776 2.9017091
4.0800958 -9.7025776 2.9137089
5.0800958 -9.7025776 2.985709
5.380096 -9.7025776 2.9797089
7.4800959 -9.7025776 3.0957091
8.0800962 -9.7025776 3.1207089
8.3800964 -9.7025776 3.145709
9.0800962 -9.7025776 3.1837089
10.580096 -9.7025776 3.313709
10.980096 -9.7025776 3.3417089
11.480096 -9.7025776 3.3947091
11.880096 -9.7025776 3.409709
12.280096 -9.7025776 3.4697089
15.480096 -9.7025776 3.8477089
15.980096 -9.7025776 3.895709
16.880096 -9.7025776 3.9957089
17.180096 -9.7025776 4.0387092
17.680096 -9.7025776 4.093709
18.080095 -9.7025776 4.1177092
18.880096 -9.7025776 4.152709
19.180096 -9.7025776 4.178709
19.380096 -9.7025776 4.1747088
19.580095 -9.7025776 4.1877089
20.080095 -9.7025776 4.2177091
20.480097 -9.7025776 4.2217088
20.680096 -9.7025776 4.2197089
21.380096 -9.7025776 4.2607088
21.580095 -9.7025776 4.2957091
22.080095 -9.7025776 4.3347092
23.780096 -9.7025776 4.4647088
23.980097 -9.7025776 4.4897089
24.380096 -9.7025776 4.5317092
-12.819904 -9.802578 1.464709
-10.419904 -9.802578 1.884709
-9.4199038 -9.802578 2.033709
-7.4199042 -9.802578 2.2757089
-4.8199039 -9.802578 2.4927089
-4.4199042 -9.802578 2.5027089
-3.2199039 -9.802578 2.589709
-2.7199039 -9.802578 2.623709
-1.319904 -9.802578 2.7207091
-1.019904 -9.802578 2.7307091
0.48009601 -9.802578 2.7957089
2.2800961 -9.802578 2.8647089
2.880096 -9.802578 2.879709
4.7800961 -9.802578 2.961709
7.7800961 -9.802578 3.1277089
9.5800962 -9.802578 3.225709
9.8800964 -9.802578 3.2407091
12.580096 -9.802578 3.520709
12.980096 -9.802578 3.5717089
13.380096 -9.802578 3.626709
13.780096 -9.802578 3.6817091
14.180096 -9.802578 3.7177091
14.480096 -9.802578 3.7567091
15.180096 -9.802578 3.8487091
15.680096 -9.802578 3.9117091
16.480097 -9.802578 3.981709
17.480097 -9.802578 4.0887089
17.880096 -9.802578 4.119709
18.380096 -9.802578 4.1367092
18.680096 -9.802578 4.1577091
19.780096 -9.802578 4.2307091
20.280096 -9.802578 4.2277088
20.880096 -9.802578 4.2687092
21.080095 -9.802578 4.2627091
21.780096 -9.802578 4.356709
22.280096 -9.802578 4.3797088
22.480097 -9.802578 4.4057088
22.780096 -9.802578 4.4407091
22.980097 -9.802578 4.4447088
23.280096 -9.802578 4.4707088
23.480097 -9.802578 4.487709
24.180096 -9.802578 4.5707092
24.680096 -9.802578 4.613709
24.880096 -9.802578 4.6157088
25.280096 -9.802578 4.5727091
-20.119904 -9.9025784 0.430709
-15.319904 -9.9025784 0.972709
-11.319904 -9.9025784 1.7177089
-6.619904 -9.9025784 2.343709
-3.7199039 -9.9025784 2.5617089
-1.919904 -9.9025784 2.6647091
-0.61990398 -9.9025784 2.751709
0.180096 -9.9025784 2.777709
0.98009598 -9.9025784 2.807709
1.7800961 -9.9025784 2.8217089
3.580096 -9.9025784 2.9017091
4.380096 -9.9025784 2.9177091
5.6800961 -9.9025784 3.0297091
5.9800959 -9.9025784 3.0487089
6.5800958 -9.9025784 3.070709
7.1800961 -9.9025784 3.0987091
8.7800961 -9.9025784 3.1907091
11.180096 -9.9025784 3.3887091
12.080096 -9.9025784 3.4797089
14.980096 -9.9025784 3.833709
16.080095 -9.9025784 3.9537089
16.680096 -9.9025784 4.021709
16.980097 -9.9025784 4.066709
17.680096 -9.9025784 4.119709
18.180096 -9.9025784 4.1627092
19.180096 -9.9025784 4.2017088
19.480097 -9.9025784 4.2197089
20.080095 -9.9025784 4.2357092
20.580095 -9.9025784 4.2797089
21.280096 -9.9025784 4.3357091
21.980097 -9.9025784 4.4057088
23.780096 -9.9025784 4.5757089
23.980097 -9.9025784 4.5757089
25.080095 -9.9025784 4.6507092
-23.219904 -10.002578 -0.432291
-5.8199039 -10.002578 2.408709
-5.3199039 -10.002578 2.464709
-4.119904 -10.002578 2.530709
-0.119904 -10.002578 2.7637091
0.68009597 -10.002578 2.7927091
1.380096 -10.002578 2.817709
2.580096 -10.002578 2.8807089
5.2800961 -10.002578 3.001709
7.5800958 -10.002578 3.142709
8.1800957 -10.002578 3.1817091
10.180096 -10.002578 3.3327091
11.480096 -10.002578 3.4437089
12.380096 -10.002578 3.553709
12.680096 -10.002578 3.5847089
13.280096 -10.002578 3.6517091
13.580096 -10.002578 3.6967089
13.880096 -10.002578 3.7457089
14.280096 -10.002578 3.7827089
14.780096 -10.002578 3.853709
15.380096 -10.002578 3.928709
15.680096 -10.002578 3.9597089
16.280096 -10.002578 4.0177088
17.180096 -10.002578 4.0907092
17.380096 -10.002578 4.113709
18.380096 -10.002578 4.1907091
18.580095 -10.002578 4.191709
18.880096 -10.002578 4.2017088
19.680096 -10.002578 4.2457089
20.380096 -10.002578 4.2967091
20.880096 -10.002578 4.323709
21.080095 -10.002578 4.3397088
21.580095 -10.002578 4.3907089
22.280096 -10.002578 4.462709
23.080095 -10.002578 4.5237088
23.280096 -10.002578 4.5437088
23.580095 -10.002578 4.586709
24.380096 -10.002578 4.6507092
24.580095 -10.002578 4.6667089
24.780096 -10.002578 4.6487088
25.080095 -10.002578 4.5007091
-22.419905 -10.102578 0.034708999
-12.319904 -10.102578 1.509709
-10.919904 -10.102578 1.767709
-10.119904 -10.102578 1.912709
-9.1199036 -10.102578 2.0617089
-8.4199038 -10.102578 2.1387091
-7.8199039 -10.102578 2.208709
-7.0199041 -10.102578 2.2967091
-4.7199039 -10.102578 2.4797089
-3.119904 -10.102578 2.6027091
-2.3199041 -10.102578 2.6477089
-1.2199039 -10.102578 2.724709
-0.91990399 -10.102578 2.7237091
2.080096 -10.102578 2.843709
2.880096 -10.102578 2.8937089
3.880096 -10.102578 2.9437089
4.5800958 -10.102578 2.9697089
6.380096 -10.102578 3.076709
6.7800961 -10.102578 3.096709
9.1800957 -10.102578 3.254709
9.5800962 -10.102578 3.281709
9.8800964 -10.102578 3.320709
10.780096 -10.102578 3.4107089
11.880096 -10.102578 3.510709
14.080096 -10.102578 3.770709
15.180096 -10.102578 3.9237089
16.480097 -10.102578 4.0527091
17.680096 -10.102578 4.1747088
17.980097 -10.102578 4.1937089
18.180096 -10.102578 4.2137089
19.980097 -10.102578 4.283709
20.580095 -10.102578 4.3227091
21.380096 -10.102578 4.4037089
21.880096 -10.102578 4.4567089
22.080095 -10.102578 4.461709
22.580095 -10.102578 4.5387092
22.780096 -10.102578 4.5377092
23.780096 -10.102578 4.6417089
23.980097 -10.102578 4.6507092
24.180096 -10.102578 4.6667089
-13.219904 -10.202578 1.311709
-9.6199036 -10.202578 1.9777091
-2.619904 -10.202578 2.6247089
-2.0199039 -10.202578 2.655709
-1.7199039 -10.202578 2.669709
-0.41990399 -10.202578 2.761709
0.180096 -10.202578 2.7917089
3.2800961 -10.202578 2.8887091
5.0800958 -10.202578 3.0097089
7.380096 -10.202578 3.1407089
7.7800961 -10.202578 3.182709
8.3800964 -10.202578 3.1977091
8.6800957 -10.202578 3.234709
10.480096 -10.202578 3.3987091
12.080096 -10.202578 3.5647089
13.080096 -10.202578 3.6807089
13.480096 -10.202578 3.728709
14.480096 -10.202578 3.856709
14.980096 -10.202578 3.9137089
15.480096 -10.202578 3.9837091
15.980096 -10.202578 4.0367088
16.180096 -10.202578 4.0457091
16.880096 -10.202578 4.1217089
17.080095 -10.202578 4.133709
17.480097 -10.202578 4.178709
18.480097 -10.202578 4.244709
18.780096 -10.202578 4.2457089
19.080095 -10.202578 4.2967091
19.280096 -10.202578 4.2887092
19.480097 -10.202578 4.283709
19.780096 -10.202578 4.3077092
20.180096 -10.202578 4.3297091
20.880096 -10.202578 4.3977089
21.180096 -10.202578 4.429709
22.280096 -10.202578 4.5227089
23.280096 -10.202578 4.652709
24.580095 -10.202578 4.6207089
-17.119904 -10.302578 0.764709
-15.919904 -10.302578 0.90470898
-12.619904 -10.302578 1.405709
-8.1199036 -10.302578 2.1647091
-7.3199039 -10.302578 2.2757089
-6.119904 -10.302578 2.379709
-5.619904 -10.302578 2.429709
-5.2199039 -10.302578 2.441709
-4.2199039 -10.302578 2.5027089
-3.8199041 -10.302578 2.5287089
-3.419904 -10.302578 2.5747089
0.68009597 -10.302578 2.803709
0.98009598 -10.302578 2.8197091
1.380096 -10.302578 2.8417089
2.4800961 -10.302578 2.886709
3.6800959 -10.302578 2.941709
4.1800961 -10.302578 2.945709
4.7800961 -10.302578 3.0187089
5.6800961 -10.302578 3.0557089
9.3800964 -10.302578 3.294709
10.180096 -10.302578 3.3977089
10.980096 -10.302578 3.4797089
11.380096 -10.302578 3.533709
11.680096 -10.302578 3.5387089
12.780096 -10.302578 3.6717091
13.280096 -10.302578 3.741709
13.880096 -10.302578 3.7857089
14.180096 -10.302578 3.8247089
14.780096 -10.302578 3.8947091
15.280096 -10.302578 3.9707091
15.680096 -10.302578 4.0197091
16.680096 -10.302578 4.1177092
17.280096 -10.302578 4.1767092
18.180096 -10.302578 4.2397089
19.980097 -10.302578 4.3407092
20.480097 -10.302578 4.3887091
21.680096 -10.302578 4.5047088
22.080095 -10.302578 4.5327091
22.480097 -10.302578 4.5707092
22.780096 -10.302578 4.6227088
23.080095 -10.302578 4.6377091
23.480097 -10.302578 4.6827092
23.780096 -10.302578 4.724709
24.080095 -10.302578 4.725709
24.380096 -10.302578 4.7207088
-18.219904 -10.402578 0.70570898
-13.719904 -10.402578 1.243709
-11.619904 -10.402578 1.571709
-10.619904 -10.402578 1.795709
-8.6199036 -10.402578 2.0787089
-6.5199041 -10.402578 2.327709
-4.5199041 -10.402578 2.4927089
-1.2199039 -10.402578 2.712709
-0.71990401 -10.402578 2.751709
1.680096 -10.402578 2.849709
2.1800959 -10.402578 2.873709
3.080096 -10.402578 2.895709
5.380096 -10.402578 3.060709
6.0800958 -10.402578 3.0947089
6.5800958 -10.402578 3.122709
7.1800961 -10.402578 3.1507089
8.8800964 -10.402578 3.2737091
12.280096 -10.402578 3.6317091
12.980096 -10.402578 3.7177091
13.680096 -10.402578 3.790709
14.580096 -10.402578 3.906709
15.080096 -10.402578 3.968709
15.880096 -10.402578 4.0577092
16.280096 -10.402578 4.093709
16.480097 -10.402578 4.1117091
17.580095 -10.402578 4.2227092
17.880096 -10.402578 4.2547088
18.480097 -10.402578 4.2527089
18.780096 -10.402578 4.2857089
18.980097 -10.402578 4.2967091
19.380096 -10.402578 4.3187089
19.580095 -10.402578 4.3407092
19.780096 -10.402578 4.3407092
20.180096 -10.402578 4.3927088
20.780096 -10.402578 4.4457092
20.980097 -10.402578 4.4567089
21.180096 -10.402578 4.488709
21.380096 -10.402578 4.5067091
21.880096 -10.402578 4.5587091
-21.219904 -10.502578 0.49670899
-11.119904 -10.502578 1.672709
-10.219904 -10.502578 1.850709
-9.3199043 -10.502578 1.971709
-7.619904 -10.502578 2.228709
-3.0199039 -10.502578 2.5987091
-2.7199039 -10.502578 2.6187091
-2.3199041 -10.502578 2.623709
-1.519904 -10.502578 2.6867089
-0.319904 -10.502578 2.783709
0.180096 -10.502578 2.8017089
0.48009601 -10.502578 2.7857089
1.180096 -10.502578 2.840709
3.880096 -10.502578 2.9577091
4.380096 -10.502578 2.998709
8.1800957 -10.502578 3.2557089
9.1800957 -10.502578 3.3067091
9.7800961 -10.502578 3.383709
10.680096 -10.502578 3.4807091
11.880096 -10.502578 3.599709
12.580096 -10.502578 3.698709
13.480096 -10.502578 3.7897091
13.980096 -10.502578 3.8427091
14.880096 -10.502578 3.9677091
15.480096 -10.502578 4.0457091
16.780096 -10.502578 4.178709
17.080095 -10.502578 4.2017088
17.280096 -10.502578 4.2277088
18.080095 -10.502578 4.2527089
18.280096 -10.502578 4.2827091
19.180096 -10.502578 4.3317089
19.980097 -10.502578 4.3867092
21.680096 -10.502578 4.580709
22.180096 -10.502578 4.6317091
22.380096 -10.502578 4.6537089
22.780096 -10.502578 4.7037091
22.980097 -10.502578 4.7217088
23.380096 -10.502578 4.7547088
23.580095 -10.502578 4.7597089
24.080095 -10.502578 4.7877092
-22.819904 -10.602578 0.080709003
-4.2199039 -10.602578 2.5037091
-3.919904 -10.602578 2.4937091
-3.3199041 -10.602578 2.5727091
-1.919904 -10.602578 2.6577089
1.480096 -10.602578 2.8357091
1.980096 -10.602578 2.862709
2.380096 -10.602578 2.8807089
2.880096 -10.602578 2.9167089
3.4800961 -10.602578 2.9437089
5.6800961 -10.602578 3.123709
6.880096 -10.602578 3.1617091
7.4800959 -10.602578 3.2047091
10.380096 -10.602578 3.4537089
11.280096 -10.602578 3.547709
11.580096 -10.602578 3.596709
12.080096 -10.602578 3.6517091
12.780096 -10.602578 3.748709
13.180096 -10.602578 3.793709
14.280096 -10.602578 3.918709
15.280096 -10.602578 4.066709
15.680096 -10.602578 4.100709
15.880096 -10.602578 4.1237092
16.080095 -10.602578 4.1237092
16.580095 -10.602578 4.1667089
17.480097 -10.602578 4.2497091
17.780096 -10.602578 4.2767091
18.580095 -10.602578 4.3277092
18.880096 -10.602578 4.3387089
19.480097 -10.602578 4.395709
19.680096 -10.602578 4.4007092
20.380096 -10.602578 4.4827089
20.580095 -10.602578 4.5037088
20.780096 -10.602578 4.5397091
21.080095 -10.602578 4.5317092
21.280096 -10.602578 4.5747089
21.980097 -10.602578 4.6497092
22.580095 -10.602578 4.7157092
23.180096 -10.602578 4.7857089
23.780096 -10.602578 4.8297091
23.980097 -10.602578 4.843709
-12.219904 -10.702578 1.423709
-7.9199042 -10.702578 2.1537089
-7.3199039 -10.702578 2.218709
-6.9199042 -10.702578 2.254709
-6.3199039 -10.702578 2.3317089
-5.8199039 -10.702578 2.376709
-5.4199042 -10.702578 2.3987091
-5.0199041 -10.702578 2.4367089
-0.119904 -10.702578 2.784709
0.68009597 -10.702578 2.817709
4.1800961 -10.702578 2.9967091
4.9800959 -10.702578 3.0557089
5.2800961 -10.702578 3.0827091
6.5800958 -10.702578 3.142709
7.1800961 -10.702578 3.1897089
7.880096 -10.702578 3.2597089
8.4800959 -10.702578 3.2927091
8.9800959 -10.702578 3.3387091
10.980096 -10.702578 3.5627091
12.480096 -10.702578 3.7177091
13.380096 -10.702578 3.823709
13.780096 -10.702578 3.8647089
14.080096 -10.702578 3.909709
14.480096 -10.702578 3.962709
14.780096 -10.702578 4.0127091
16.380096 -10.702578 4.1957092
16.880096 -10.702578 4.224709
17.080095 -10.702578 4.238709
18.080095 -10.702578 4.3217092
18.280096 -10.702578 4.3317089
19.080095 -10.702578 4.3677092
19.280096 -10.702578 4.3817091
19.880096 -10.702578 4.4477091
20.180096 -10.702578 4.4807091
21.580095 -10.702578 4.6477089
22.180096 -10.702578 4.7137089
22.380096 -10.702578 4.7327089
22.780096 -10.702578 4.7827091
22.980097 -10.702578 4.7967091
23.480097 -10.702578 4.8407092
24.080095 -10.702578 4.7367091
-14.019904 -10.802578 1.177709
-13.219904 -10.802578 1.270709
-10.719904 -10.802578 1.696709
-9.9199038 -10.802578 1.837709
-8.7199039 -10.802578 2.021709
-8.3199043 -10.802578 2.0697091
-1.519904 -10.802578 2.6907091
-1.2199039 -10.802578 2.705709
-0.91990399 -10.802578 2.734709
-0.61990398 -10.802578 2.7407091
0.28009599 -10.802578 2.7967091
0.98009598 -10.802578 2.8187089
1.7800961 -10.802578 2.8647089
2.6800959 -10.802578 2.8847089
4.5800958 -10.802578 3.0327089
5.9800959 -10.802578 3.1217091
6.2800961 -10.802578 3.156709
9.3800964 -10.802578 3.385709
10.080096 -10.802578 3.4807091
10.580096 -10.802578 3.5417089
11.180096 -10.802578 3.6057091
11.680096 -10.802578 3.6417091
12.180096 -10.802578 3.6807089
12.980096 -10.802578 3.804709
13.580096 -10.802578 3.895709
14.980096 -10.802578 4.0747089
15.180096 -10.802578 4.106709
15.480096 -10.802578 4.139709
15.680096 -10.802578 4.1607089
15.980096 -10.802578 4.178709
16.580095 -10.802578 4.224709
17.380096 -10.802578 4.2947092
17.680096 -10.802578 4.3157091
17.880096 -10.802578 4.3287091
18.580095 -10.802578 4.376709
18.780096 -10.802578 4.3797088
19.680096 -10.802578 4.4697089
20.380096 -10.802578 4.5427089
20.780096 -10.802578 4.5837088
20.980097 -10.802578 4.6107092
21.780096 -10.802578 4.7007089
21.980097 -10.802578 4.731709
23.180096 -10.802578 4.8417091
23.780096 -10.802578 4.8717089
-19.419905 -10.902578 0.74370903
-11.719904 -10.902578 1.501709
-6.619904 -10.902578 2.271709
-4.7199039 -10.902578 2.4637091
-4.3199039 -10.902578 2.487709
-3.619904 -10.902578 2.5357089
-3.119904 -10.902578 2.5817089
-2.619904 -10.902578 2.6117091
-2.3199041 -10.902578 2.6487091
-2.0199039 -10.902578 2.669709
-0.319904 -10.902578 2.774709
1.480096 -10.902578 2.8547089
2.080096 -10.902578 2.8947091
2.9800961 -10.902578 2.941709
3.2800961 -10.902578 2.9237089
3.6800959 -10.902578 2.9827089
6.880096 -10.902578 3.198709
7.5800958 -10.902578 3.237709
8.6800957 -10.902578 3.3487091
9.6800957 -10.902578 3.4337089
10.380096 -10.902578 3.5197091
10.780096 -10.902578 3.5917089
11.880096 -10.902578 3.6707089
12.580096 -10.902578 3.7767091
13.280096 -10.902578 3.8707089
13.880096 -10.902578 3.948709
14.180096 -10.902578 3.9897089
14.580096 -10.902578 4.0247092
14.780096 -10.902578 4.0617089
16.180096 -10.902578 4.224709
16.380096 -10.902578 4.2437091
16.780096 -10.902578 4.2627091
18.180096 -10.902578 4.3727088
19.080095 -10.902578 4.4377089
19.480097 -10.902578 4.4737091
20.080095 -10.902578 4.5457091
20.580095 -10.902578 4.6177092
21.180096 -10.902578 4.7007089
21.380096 -10.902578 4.718709
21.580095 -10.902578 4.7197089
22.180096 -10.902578 4.7867088
22.380096 -10.902578 4.7997088
22.580095 -10.902578 4.8247089
22.780096 -10.902578 4.862709
23.580095 -10.902578 4.941709
-14.719904 -11.002578 1.114709
-9.3199043 -11.002578 1.8937089
-7.7199039 -11.002578 2.1547091
0.48009601 -11.002578 2.8127091
0.78009599 -11.002578 2.8227091
4.880096 -11.002578 3.057709
7.2800961 -11.002578 3.237709
8.0800962 -11.002578 3.3197091
11.480096 -11.002578 3.6677091
12.280096 -11.002578 3.767709
12.780096 -11.002578 3.8317089
13.680096 -11.002578 3.942709
14.980096 -11.002578 4.1277089
15.680096 -11.002578 4.1967092
15.880096 -11.002578 4.2137089
16.580095 -11.002578 4.2557092
16.980097 -11.002578 4.2987089
17.180096 -11.002578 4.3157091
17.580095 -11.002578 4.3547091
17.880096 -11.002578 4.3787088
18.380096 -11.002578 4.409709
18.580095 -11.002578 4.4207091
18.780096 -11.002578 4.4347091
19.280096 -11.002578 4.5047088
19.780096 -11.002578 4.566709
20.380096 -11.002578 4.632709
20.780096 -11.002578 4.6667089
20.980097 -11.002578 4.6827092
21.780096 -11.002578 4.777709
23.080095 -11.002578 4.9127092
23.380096 -11.002578 4.9547091
23.680096 -11.002578 4.790709
-11.219904 -11.102578 1.582709
-7.4199042 -11.102578 2.1547091
-6.119904 -11.102578 2.3087089
-5.4199042 -11.102578 2.396709
-5.0199041 -11.102578 2.432709
-1.819904 -11.102578 2.619709
-1.519904 -11.102578 2.678709
-1.2199039 -11.102578 2.6967089
-0.119904 -11.102578 2.7787089
0.180096 -11.102578 2.810709
1.2800961 -11.102578 2.8617091
1.7800961 -11.102578 2.883709
2.4800961 -11.102578 2.9237089
3.880096 -11.102578 3.0067091
4.1800961 -11.102578 3.024709
4.5800958 -11.102578 3.0497091
5.380096 -11.102578 3.103709
5.6800961 -11.102578 3.133709
6.4800959 -11.102578 3.192709
7.7800961 -11.102578 3.2917089
8.8800964 -11.102578 3.409709
9.1800957 -11.102578 3.435709
9.4800959 -11.102578 3.4507091
9.7800961 -11.102578 3.507709
10.280096 -11.102578 3.563709
10.980096 -11.102578 3.6387091
11.280096 -11.102578 3.6637089
11.980096 -11.102578 3.7437091
12.480096 -11.102578 3.813709
13.180096 -11.102578 3.902709
13.480096 -11.102578 3.945709
14.080096 -11.102578 4.0307088
14.480096 -11.102578 4.080709
14.680096 -11.102578 4.100709
15.180096 -11.102578 4.1687088
15.480096 -11.102578 4.1947088
16.780096 -11.102578 4.3077092
17.380096 -11.102578 4.3577089
18.080095 -11.102578 4.4177089
18.980097 -11.102578 4.4937091
20.180096 -11.102578 4.6607089
20.580095 -11.102578 4.7217088
21.180096 -11.102578 4.790709
21.980097 -11.102578 4.8647089
22.480097 -11.102578 4.8987088
22.680096 -11.102578 4.9207091
22.880096 -11.102578 4.9247088
23.280096 -11.102578 5.0137091
23.480097 -11.102578 4.863709
-17.719904 -11.202578 0.91370898
-16.319904 -11.202578 0.98970902
-9.9199038 -11.202578 1.800709
-8.7199039 -11.202578 1.960709
-6.9199042 -11.202578 2.1837089
-4.5199041 -11.202578 2.471709
-4.119904 -11.202578 2.5027089
-2.3199041 -11.202578 2.6287091
-0.91990399 -11.202578 2.731709
-0.51990402 -11.202578 2.760709
6.880096 -11.202578 3.2297089
7.4800959 -11.202578 3.2897091
8.3800964 -11.202578 3.3647089
11.680096 -11.202578 3.7267089
12.680096 -11.202578 3.859709
13.880096 -11.202578 4.033709
14.280096 -11.202578 4.0947089
14.880096 -11.202578 4.1637092
15.780096 -11.202578 4.2547088
16.080095 -11.202578 4.2857089
16.280096 -11.202578 4.2857089
16.580095 -11.202578 4.3157091
17.680096 -11.202578 4.4007092
17.880096 -11.202578 4.4107089
18.280096 -11.202578 4.4607091
18.480097 -11.202578 4.4707088
18.680096 -11.202578 4.4837089
19.180096 -11.202578 4.5487089
19.380096 -11.202578 4.5697088
19.580095 -11.202578 4.5927091
19.880096 -11.202578 4.6427088
20.780096 -11.202578 4.757709
20.980097 -11.202578 4.8017092
21.480097 -11.202578 4.8657088
21.780096 -11.202578 4.8777089
22.280096 -11.202578 4.9347091
-15.519904 -11.302578 1.058709
-3.619904 -11.302578 2.5187089
0.78009599 -11.302578 2.8087089
1.080096 -11.302578 2.843709
1.580096 -11.302578 2.8647089
1.980096 -11.302578 2.905709
2.2800961 -11.302578 2.912709
2.7800961 -11.302578 2.945709
3.1800959 -11.302578 2.965709
3.580096 -11.302578 3.0007091
5.1800961 -11.302578 3.1077089
6.0800958 -11.302578 3.1847091
8.0800962 -11.302578 3.3487091
10.480096 -11.302578 3.616709
10.780096 -11.302578 3.656709
11.480096 -11.302578 3.734709
12.280096 -11.302578 3.840709
13.080096 -11.302578 3.941709
14.080096 -11.302578 4.0847092
14.480096 -11.302578 4.133709
14.680096 -11.302578 4.178709
15.080096 -11.302578 4.1997089
15.380096 -11.302578 4.244709
15.580096 -11.302578 4.2557092
16.780096 -11.302578 4.350709
17.080095 -11.302578 4.3737092
17.280096 -11.302578 4.389709
17.480097 -11.302578 4.4017091
20.180096 -11.302578 4.7557092
20.380096 -11.302578 4.770709
20.580095 -11.302578 4.7887092
21.280096 -11.302578 4.8667092
21.980097 -11.302578 4.9537091
22.480097 -11.302578 4.9917092
22.680096 -11.302578 5.0137091
22.880096 -11.302578 5.0357089
23.080095 -11.302578 4.902709
-18.519903 -11.402578 0.92870897
-13.419904 -11.402578 1.282709
-12.819904 -11.402578 1.350709
-10.419904 -11.402578 1.6947089
-8.2199039 -11.402578 2.010709
-7.7199039 -11.402578 2.0917089
-5.8199039 -11.402578 2.3227091
-5.2199039 -11.402578 2.3877089
-3.3199041 -11.402578 2.534709
-2.8199041 -11.402578 2.573709
-2.119904 -11.402578 2.606709
-1.7199039 -11.402578 2.6577089
-1.2199039 -11.402578 2.691709
-0.71990401 -11.402578 2.7297089
-0.119904 -11.402578 2.7867091
0.28009599 -11.402578 2.800709
4.1800961 -11.402578 3.0487089
4.6800961 -11.402578 3.076709
5.7800961 -11.402578 3.1717091
9.0800962 -11.402578 3.468709
9.5800962 -11.402578 3.521709
10.080096 -11.402578 3.5927091
10.980096 -11.402578 3.691709
11.280096 -11.402578 3.7237091
11.780096 -11.402578 3.7957089
13.380096 -11.402578 4.0187092
13.780096 -11.402578 4.0787091
15.880096 -11.402578 4.3077092
16.080095 -11.402578 4.3127089
16.280096 -11.402578 4.3287091
16.580095 -11.402578 4.3557091
17.880096 -11.402578 4.4647088
18.080095 -11.402578 4.487709
18.280096 -11.402578 4.5257092
18.480097 -11.402578 4.5397091
18.880096 -11.402578 4.586709
19.180096 -11.402578 4.6357088
19.480097 -11.402578 4.6717091
20.880096 -11.402578 4.8747091
21.080095 -11.402578 4.8927088
21.480097 -11.402578 4.9437089
22.780096 -11.402578 5.053709
-21.419905 -11.502578 0.82770902
-20.219904 -11.502578 0.90070897
-9.6199036 -11.502578 1.821709
-9.0199041 -11.502578 1.887709
-6.4199042 -11.502578 2.2307091
-5.5199041 -11.502578 2.3427091
-4.8199039 -11.502578 2.4147091
-4.5199041 -11.502578 2.4547091
-2.419904 -11.502578 2.606709
-0.41990399 -11.502578 2.758709
0.58009601 -11.502578 2.810709
1.380096 -11.502578 2.8677089
1.7800961 -11.502578 2.896709
2.580096 -11.502578 2.941709
3.380096 -11.502578 2.9937091
5.4800959 -11.502578 3.146709
6.4800959 -11.502578 3.221709
7.0800958 -11.502578 3.2867091
7.4800959 -11.502578 3.330709
7.880096 -11.502578 3.3747089
8.2800961 -11.502578 3.4247091
8.5800962 -11.502578 3.4477091
10.380096 -11.502578 3.6387091
11.580096 -11.502578 3.7627089
12.080096 -11.502578 3.850709
12.380096 -11.502578 3.8877089
12.680096 -11.502578 3.9537089
13.580096 -11.502578 4.0637088
14.080096 -11.502578 4.126709
14.280096 -11.502578 4.1617088
14.580096 -11.502578 4.1907091
14.780096 -11.502578 4.2307091
14.980096 -11.502578 4.2467089
15.280096 -11.502578 4.2897091
15.480096 -11.502578 4.2957091
15.680096 -11.502578 4.3227091
16.780096 -11.502578 4.4177089
16.980097 -11.502578 4.4007092
17.480097 -11.502578 4.4777088
17.680096 -11.502578 4.4937091
18.680096 -11.502578 4.5977092
19.680096 -11.502578 4.7667089
19.980097 -11.502578 4.7927089
20.280096 -11.502578 4.810709
20.480097 -11.502578 4.8477092
20.680096 -11.502578 4.882709
21.280096 -11.502578 4.9517088
21.680096 -11.502578 4.9977088
21.880096 -11.502578 5.0357089
22.080095 -11.502578 5.040709
22.380096 -11.502578 5.0757089
22.580095 -11.502578 5.0987091
22.880096 -11.502578 4.928709
-11.819904 -11.602578 1.474709
-7.4199042 -11.602578 2.0917089
-4.0199041 -11.602578 2.4797089
-3.619904 -11.602578 2.4907091
2.2800961 -11.602578 2.9267089
2.9800961 -11.602578 2.9667089
3.6800959 -11.602578 3.0187089
3.9800961 -11.602578 3.050709
5.0800958 -11.602578 3.1347089
5.9800959 -11.602578 3.2197089
8.8800964 -11.602578 3.4827089
9.1800957 -11.602578 3.533709
10.180096 -11.602578 3.6307089
10.580096 -11.602578 3.688709
11.180096 -11.602578 3.767709
12.880096 -11.602578 3.988709
13.180096 -11.602578 4.0297089
15.980096 -11.602578 4.383709
16.180096 -11.602578 4.3907089
16.380096 -11.602578 4.4107089
16.580095 -11.602578 4.4207091
17.180096 -11.602578 4.4867091
17.880096 -11.602578 4.5727091
18.880096 -11.602578 4.665709
19.380096 -11.602578 4.724709
20.880096 -11.602578 4.941709
22.480097 -11.602578 5.133709
22.680096 -11.602578 5.014709
-19.419905 -11.702578 1.015709
-15.019904 -11.702578 1.203709
-14.019904 -11.702578 1.254709
-11.319904 -11.702578 1.563709
-10.819904 -11.702578 1.627709
-10.019904 -11.702578 1.749709
-3.119904 -11.702578 2.5257089
-2.0199039 -11.702578 2.635709
-1.619904 -11.702578 2.669709
-0.71990401 -11.702578 2.725709
0.88009602 -11.702578 2.843709
4.2800961 -11.702578 3.070709
4.5800958 -11.702578 3.103709
5.6800961 -11.702578 3.1947091
6.2800961 -11.702578 3.258709
6.6800961 -11.702578 3.2927091
7.2800961 -11.702578 3.3447089
9.4800959 -11.702578 3.580709
9.8800964 -11.702578 3.646709
10.780096 -11.702578 3.7367091
11.380096 -11.702578 3.817709
11.780096 -11.702578 3.8687091
12.280096 -11.702578 3.925709
12.480096 -11.702578 3.978709
13.480096 -11.702578 4.1177092
13.880096 -11.702578 4.1717091
14.180096 -11.702578 4.2007089
14.380096 -11.702578 4.2197089
14.580096 -11.702578 4.2437091
14.880096 -11.702578 4.2797089
15.480096 -11.702578 4.3547091
16.780096 -11.702578 4.4707088
16.980097 -11.702578 4.488709
17.580095 -11.702578 4.5647092
18.080095 -11.702578 4.6287088
18.280096 -11.702578 4.6577091
18.480097 -11.702578 4.6757088
19.180096 -11.702578 4.7697091
19.780096 -11.702578 4.836709
19.980097 -11.702578 4.8777089
20.480097 -11.702578 4.9377089
21.080095 -11.702578 5.014709
21.280096 -11.702578 5.0267091
21.480097 -11.702578 5.0637088
21.680096 -11.702578 5.0917091
21.880096 -11.702578 5.113709
22.080095 -11.702578 5.0917091
22.380096 -11.702578 5.1227088
-9.3199043 -11.802578 1.837709
-8.4199038 -11.802578 1.942709
-7.9199042 -11.802578 2.027709
-7.119904 -11.802578 2.1317091
-6.619904 -11.802578 2.1707089
-6.119904 -11.802578 2.2267089
-4.5199041 -11.802578 2.4107089
-2.5199039 -11.802578 2.587709
-1.319904 -11.802578 2.6897089
-1.019904 -11.802578 2.708709
-0.319904 -11.802578 2.767709
0.080095999 -11.802578 2.7867091
0.48009601 -11.802578 2.8087089
1.2800961 -11.802578 2.8647089
1.580096 -11.802578 2.8847089
3.4800961 -11.802578 2.998709
7.5800958 -11.802578 3.3937089
8.0800962 -11.802578 3.4497089
8.6800957 -11.802578 3.524709
9.6800957 -11.802578 3.629709
10.380096 -11.802578 3.7177091
11.580096 -11.802578 3.8517089
13.080096 -11.802578 4.0897088
15.080096 -11.802578 4.3267088
15.280096 -11.802578 4.3657088
15.780096 -11.802578 4.4447088
15.980096 -11.802578 4.4337091
17.180096 -11.802578 4.5637088
17.380096 -11.802578 4.5707092
17.780096 -11.802578 4.6177092
18.680096 -11.802578 4.7537088
18.880096 -11.802578 4.7857089
19.480097 -11.802578 4.8547091
20.180096 -11.802578 4.9327092
20.680096 -11.802578 5.0097089
20.880096 -11.802578 5.014709
22.180096 -11.802578 5.205709
-20.519903 -11.902578 1.054709
-5.7199039 -11.902578 2.2667091
-5.2199039 -11.902578 2.336709
-4.8199039 -11.902578 2.366709
-4.119904 -11.902578 2.441709
1.980096 -11.902578 2.922709
2.2800961 -11.902578 2.941709
2.7800961 -11.902578 2.9727089
3.1800959 -11.902578 2.9937091
3.880096 -11.902578 3.0627091
4.9800959 -11.902578 3.1547091
5.9800959 -11.902578 3.251709
8.3800964 -11.902578 3.4937091
10.980096 -11.902578 3.8297091
11.280096 -11.902578 3.8527091
12.180096 -11.902578 3.9707091
12.380096 -11.902578 4.0237088
12.680096 -11.902578 4.0517092
13.380096 -11.902578 4.1557088
13.680096 -11.902578 4.1957092
13.980096 -11.902578 4.2267089
16.180096 -11.902578 4.488709
16.480097 -11.902578 4.5227089
16.680096 -11.902578 4.5257092
17.580095 -11.902578 4.6647091
17.980097 -11.902578 4.6967092
18.180096 -11.902578 4.724709
18.380096 -11.902578 4.7687092
19.180096 -11.902578 4.8647089
19.680096 -11.902578 4.948709
19.880096 -11.902578 4.9697089
20.280096 -11.902578 5.0287089
21.080095 -11.902578 5.1087089
21.280096 -11.902578 5.152709
21.780096 -11.902578 5.2027092
22.080095 -11.902578 5.192709
-17.319904 -12.002578 1.164709
-15.719904 -12.002578 1.252709
-12.519904 -12.002578 1.453709
-10.419904 -12.002578 1.6997091
-3.7199039 -12.002578 2.471709
-3.3199041 -12.002578 2.4967091
-2.919904 -12.002578 2.5297091
-2.119904 -12.002578 2.622709
0.78009599 -12.002578 2.810709
4.1800961 -12.002578 3.106709
4.4800959 -12.002578 3.1177089
5.2800961 -12.002578 3.1907091
5.6800961 -12.002578 3.228709
6.4800959 -12.002578 3.3097091
6.9800959 -12.002578 3.350709
7.380096 -12.002578 3.3947091
7.7800961 -12.002578 3.452709
8.8800964 -12.002578 3.570709
9.2800961 -12.002578 3.6247089
9.8800964 -12.002578 3.691709
10.180096 -12.002578 3.7267089
10.480096 -12.002578 3.780709
11.580096 -12.002578 3.9277091
11.980096 -12.002578 3.985709
12.880096 -12.002578 4.132709
13.080096 -12.002578 4.1607089
14.180096 -12.002578 4.2857089
14.480096 -12.002578 4.3187089
14.780096 -12.002578 4.3607092
14.980096 -12.002578 4.3867092
15.280096 -12.002578 4.4257088
15.480096 -12.002578 4.4457092
15.880096 -12.002578 4.4987092
16.880096 -12.002578 4.6227088
17.380096 -12.002578 4.6897092
18.780096 -12.002578 4.8777089
18.980097 -12.002578 4.9197092
19.380096 -12.002578 4.9607091
20.080095 -12.002578 5.0287089
20.480097 -12.002578 5.0967088
21.580095 -12.002578 5.191709
21.880096 -12.002578 5.231709
-20.019903 -12.102578 1.173709
-18.519903 -12.102578 1.169709
-13.519904 -12.102578 1.409709
-8.9199038 -12.102578 1.892709
-6.8199039 -12.102578 2.156709
-1.619904 -12.102578 2.655709
-1.319904 -12.102578 2.6837089
-0.319904 -12.102578 2.761709
0.48009601 -12.102578 2.813709
1.2800961 -12.102578 2.8577089
2.4800961 -12.102578 2.9547091
2.9800961 -12.102578 2.9967091
3.380096 -12.102578 3.034709
3.6800959 -12.102578 3.067709
4.7800961 -12.102578 3.1677091
8.4800959 -12.102578 3.5487089
9.5800962 -12.102578 3.6817091
10.680096 -12.102578 3.8447089
11.080096 -12.102578 3.8987091
11.380096 -12.102578 3.945709
12.180096 -12.102578 4.0507088
12.580096 -12.102578 4.119709
13.380096 -12.102578 4.2487092
13.580096 -12.102578 4.2597089
13.780096 -12.102578 4.270709
13.980096 -12.102578 4.2947092
15.680096 -12.102578 4.5057092
16.180096 -12.102578 4.560709
17.180096 -12.102578 4.6967092
17.580095 -12.102578 4.757709
17.780096 -12.102578 4.7917089
17.980097 -12.102578 4.8207092
18.180096 -12.102578 4.8417091
18.480097 -12.102578 4.895709
19.180096 -12.102578 4.9857092
19.580095 -12.102578 5.014709
19.780096 -12.102578 5.054709
20.280096 -12.102578 5.1227088
20.780096 -12.102578 5.1817088
20.980097 -12.102578 5.2017088
21.180096 -12.102578 5.225709
21.380096 -12.102578 5.2237091
21.680096 -12.102578 5.2787089
21.880096 -12.102578 5.1057091
-17.919905 -12.202578 1.252709
-16.519903 -12.202578 1.274709
-14.119904 -12.202578 1.369709
-11.519904 -12.202578 1.583709
-9.7199039 -12.202578 1.8017091
-8.2199039 -12.202578 1.993709
-7.4199042 -12.202578 2.0957091
-5.5199041 -12.202578 2.2917089
-2.619904 -12.202578 2.5517089
-0.81990403 -12.202578 2.7167089
-0.019904001 -12.202578 2.7887089
0.98009598 -12.202578 2.8547089
1.680096 -12.202578 2.895709
2.080096 -12.202578 2.9337089
7.5800958 -12.202578 3.4577091
8.1800957 -12.202578 3.533709
8.9800959 -12.202578 3.6257091
9.7800961 -12.202578 3.7207091
10.080096 -12.202578 3.7787089
10.380096 -12.202578 3.830709
11.880096 -12.202578 4.0327091
12.380096 -12.202578 4.1187091
12.880096 -12.202578 4.198709
14.780096 -12.202578 4.4277091
14.980096 -12.202578 4.455709
15.180096 -12.202578 4.494709
15.480096 -12.202578 4.5367088
15.880096 -12.202578 4.5707092
16.480097 -12.202578 4.6577091
16.680096 -12.202578 4.7037091
19.380096 -12.202578 5.0617089
20.080095 -12.202578 5.1477089
20.580095 -12.202578 5.2347088
21.580095 -12.202578 5.317709
-19.619904 -12.302578 1.260709
-19.219904 -12.302578 1.246709
-15.219904 -12.302578 1.364709
-14.819904 -12.302578 1.376709
-13.119904 -12.302578 1.5007091
-6.5199041 -12.302578 2.1807089
-6.119904 -12.302578 2.1937089
-4.3199039 -12.302578 2.402709
-3.0199039 -12.302578 2.498709
-0.51990402 -12.302578 2.7407091
0.28009599 -12.302578 2.797709
3.9800961 -12.302578 3.1057091
4.380096 -12.302578 3.149709
5.2800961 -12.302578 3.244709
6.0800958 -12.302578 3.336709
6.6800961 -12.302578 3.3787091
8.5800962 -12.302578 3.590709
9.1800957 -12.302578 3.656709
9.4800959 -12.302578 3.702709
10.980096 -12.302578 3.9367089
11.480096 -12.302578 4.0117092
12.180096 -12.302578 4.1557088
12.680096 -12.302578 4.2027092
13.080096 -12.302578 4.2657089
13.280096 -12.302578 4.2887092
13.480096 -12.302578 4.3077092
13.680096 -12.302578 4.3297091
14.180096 -12.302578 4.3947091
14.380096 -12.302578 4.415709
14.580096 -12.302578 4.4517088
15.680096 -12.302578 4.5947089
16.080095 -12.302578 4.6417089
16.880096 -12.302578 4.751709
17.080095 -12.302578 4.7827091
17.380096 -12.302578 4.836709
17.680096 -12.302578 4.8817091
17.880096 -12.302578 4.8887091
18.080095 -12.302578 4.9317088
18.280096 -12.302578 4.9707088
18.480097 -12.302578 4.9827089
18.680096 -12.302578 5.0187092
18.980097 -12.302578 5.047709
19.780096 -12.302578 5.158709
20.280096 -12.302578 5.2347088
20.880096 -12.302578 5.3397088
21.080095 -12.302578 5.336709
21.280096 -12.302578 5.362709
-12.719904 -12.402578 1.441709
-9.3199043 -12.402578 1.861709
-7.8199039 -12.402578 2.0587089
-5.8199039 -12.402578 2.2657089
-1.7199039 -12.402578 2.623709
-1.2199039 -12.402578 2.655709
0.58009601 -12.402578 2.8197091
2.2800961 -12.402578 2.952709
2.880096 -12.402578 3.0007091
3.2800961 -12.402578 3.050709
5.7800961 -12.402578 3.304709
7.0800958 -12.402578 3.4377091
7.880096 -12.402578 3.530709
8.8800964 -12.402578 3.652709
9.6800957 -12.402578 3.7687089
10.280096 -12.402578 3.8587091
10.780096 -12.402578 3.942709
11.780096 -12.402578 4.0747089
12.480096 -12.402578 4.2047091
12.880096 -12.402578 4.2727089
13.880096 -12.402578 4.4017091
14.780096 -12.402578 4.5257092
15.280096 -12.402578 4.5837088
15.480096 -12.402578 4.5917091
16.380096 -12.402578 4.731709
19.180096 -12.402578 5.1307092
19.380096 -12.402578 5.1347089
19.580095 -12.402578 5.178709
19.880096 -12.402578 5.244709
20.080095 -12.402578 5.257709
20.680096 -12.402578 5.336709
21.180096 -12.402578 5.3787088
21.480097 -12.402578 5.112709
-16.719904 -12.502578 1.396709
-13.719904 -12.502578 1.265709
-10.919904 -12.502578 1.636709
-8.5199041 -12.502578 1.9957089
-5.0199041 -12.502578 2.3477089
-4.619904 -12.502578 2.3647089
-4.0199041 -12.502578 2.425709
-3.419904 -12.502578 2.4677091
-2.0199039 -12.502578 2.5927091
-0.71990401 -12.502578 2.7167089
-0.119904 -12.502578 2.747709
0.88009602 -12.502578 2.8287089
1.480096 -12.502578 2.889709
1.7800961 -12.502578 2.912709
3.580096 -12.502578 3.0827091
4.6800961 -12.502578 3.1907091
5.0800958 -12.502578 3.2337091
5.4800959 -12.502578 3.277709
6.2800961 -12.502578 3.369709
8.3800964 -12.502578 3.6027091
9.2800961 -12.502578 3.7267089
9.9800959 -12.502578 3.8317089
10.580096 -12.502578 3.9337089
11.180096 -12.502578 4.0257092
11.980096 -12.502578 4.146709
12.180096 -12.502578 4.1897092
13.280096 -12.502578 4.343709
13.580096 -12.502578 4.3937092
14.080096 -12.502578 4.4587088
14.280096 -12.502578 4.4697089
14.480096 -12.502578 4.5167089
15.080096 -12.502578 4.587709
15.780096 -12.502578 4.7167091
16.180096 -12.502578 4.7797089
16.580095 -12.502578 4.8147092
17.080095 -12.502578 4.8857088
17.280096 -12.502578 4.9187088
17.580095 -12.502578 4.974709
17.780096 -12.502578 4.9937091
17.980097 -12.502578 5.0257092
18.580095 -12.502578 5.0977092
18.780096 -12.502578 5.119709
20.280096 -12.502578 5.3457088
20.480097 -12.502578 5.3527088
21.080095 -12.502578 5.3587089
-18.419905 -12.602578 1.3657089
-17.219904 -12.602578 1.3657089
-16.319904 -12.602578 1.385709
-15.719904 -12.602578 1.475709
-10.319904 -12.602578 1.657709
-7.0199041 -12.602578 2.1777091
-2.8199041 -12.602578 2.510709
-2.3199041 -12.602578 2.554709
1.180096 -12.602578 2.8677089
2.580096 -12.602578 2.9837091
3.9800961 -12.602578 3.1187091
4.380096 -12.602578 3.162709
7.2800961 -12.602578 3.5057089
7.6800961 -12.602578 3.5417089
8.0800962 -12.602578 3.587709
8.7800961 -12.602578 3.695709
9.0800962 -12.602578 3.7427089
9.5800962 -12.602578 3.8147089
10.180096 -12.602578 3.892709
10.880096 -12.602578 4.0177088
11.580096 -12.602578 4.1357088
12.380096 -12.602578 4.2627091
12.580096 -12.602578 4.2787089
12.880096 -12.602578 4.3207092
13.080096 -12.602578 4.3547091
14.880096 -12.602578 4.6177092
15.280096 -12.602578 4.6697092
15.580096 -12.602578 4.7297091
15.980096 -12.602578 4.7807088
16.380096 -12.602578 4.8467088
16.780096 -12.602578 4.908709
17.380096 -12.602578 5.0027089
18.180096 -12.602578 5.0847092
18.380096 -12.602578 5.1257091
18.980097 -12.602578 5.2027092
19.680096 -12.602578 5.3087091
19.980097 -12.602578 5.363709
20.380096 -12.602578 5.4047089
20.680096 -12.602578 5.455709
20.880096 -12.602578 5.435709
20.980097 -12.602578 5.343709
-17.619904 -12.702578 1.418709
-9.9199038 -12.702578 1.854709
-9.0199041 -12.702578 1.966709
-8.1199036 -12.702578 2.0557089
-7.5199041 -12.702578 2.116709
-6.4199042 -12.702578 2.228709
-1.419904 -12.702578 2.6577089
0.180096 -12.702578 2.7787089
1.980096 -12.702578 2.9467089
2.2800961 -12.702578 2.971709
3.080096 -12.702578 3.043709
3.380096 -12.702578 3.0687089
5.2800961 -12.702578 3.267709
5.7800961 -12.702578 3.326709
6.5800958 -12.702578 3.4247091
8.4800959 -12.702578 3.6777091
9.8800964 -12.702578 3.8807089
10.380096 -12.702578 3.985709
10.680096 -12.702578 4.0247092
11.080096 -12.702578 4.086709
11.380096 -12.702578 4.1287088
11.780096 -12.702578 4.1887088
11.980096 -12.702578 4.224709
12.180096 -12.702578 4.237709
13.380096 -12.702578 4.4397092
13.680096 -12.702578 4.4847088
13.880096 -12.702578 4.5067091
14.380096 -12.702578 4.5847092
14.580096 -12.702578 4.599709
16.180096 -12.702578 4.8797088
16.580095 -12.702578 4.9237089
17.080095 -12.702578 4.9857092
17.580095 -12.702578 5.0617089
17.980097 -12.702578 5.1227088
18.480097 -12.702578 5.2177091
19.180096 -12.702578 5.3067088
19.380096 -12.702578 5.3147092
20.280096 -12.702578 5.4597092
20.580095 -12.702578 5.461709
20.880096 -12.702578 5.251709
-5.9199042 -12.802578 2.261709
-5.5199041 -12.802578 2.2997091
-4.4199042 -12.802578 2.4147091
-3.7199039 -12.802578 2.4597089
-1.7199039 -12.802578 2.6047089
-1.119904 -12.802578 2.6747091
-0.81990403 -12.802578 2.6837089
-0.51990402 -12.802578 2.7457089
0.68009597 -12.802578 2.8297091
0.98009598 -12.802578 2.8447089
1.680096 -12.802578 2.9267089
4.6800961 -12.802578 3.2277091
4.9800959 -12.802578 3.2567091
6.880096 -12.802578 3.4707091
7.380096 -12.802578 3.5487089
7.7800961 -12.802578 3.609709
8.2800961 -12.802578 3.6937089
8.6800957 -12.802578 3.734709
8.9800959 -12.802578 3.781709
9.3800964 -12.802578 3.8457091
9.6800957 -12.802578 3.876709
10.080096 -12.802578 3.961709
11.580096 -12.802578 4.1957092
12.380096 -12.802578 4.3217092
12.780096 -12.802578 4.3777089
12.980096 -12.802578 4.429709
14.180096 -12.802578 4.6117091
15.180096 -12.802578 4.7727089
15.380096 -12.802578 4.804709
15.580096 -12.802578 4.8127089
15.780096 -12.802578 4.8597088
16.780096 -12.802578 5.0067091
17.180096 -12.802578 5.0927091
17.780096 -12.802578 5.1557088
18.280096 -12.802578 5.2197089
18.680096 -12.802578 5.283709
18.980097 -12.802578 5.3287091
19.780096 -12.802578 5.4457092
20.080095 -12.802578 5.4827089
20.380096 -12.802578 5.534709
20.480097 -12.802578 5.4277091
-8.6199036 -12.902578 2.050709
2.4800961 -12.902578 3.0137091
2.7800961 -12.902578 3.0417089
3.7800961 -12.902578 3.1447091
4.380096 -12.902578 3.214709
5.5800958 -12.902578 3.3287089
6.0800958 -12.902578 3.392709
6.380096 -12.902578 3.419709
7.1800961 -12.902578 3.521709
8.0800962 -12.902578 3.675709
10.280096 -12.902578 4.034709
10.480096 -12.902578 4.100709
10.980096 -12.902578 4.1357088
11.180096 -12.902578 4.1947088
11.880096 -12.902578 4.2797089
12.180096 -12.902578 4.3457088
12.580096 -12.902578 4.409709
13.180096 -12.902578 4.4927092
13.380096 -12.902578 4.5157089
13.580096 -12.902578 4.5597091
13.780096 -12.902578 4.5757089
14.380096 -12.902578 4.6767092
14.880096 -12.902578 4.764709
15.980096 -12.902578 4.9367089
16.480097 -12.902578 5.0257092
17.380096 -12.902578 5.1577091
17.580095 -12.902578 5.1847091
18.080095 -12.902578 5.2527089
18.480097 -12.902578 5.3147092
18.780096 -12.902578 5.3667092
19.180096 -12.902578 5.415709
19.580095 -12.902578 5.441709
19.880096 -12.902578 5.5267091
20.180096 -12.902578 5.5717092
-9.6199036 -13.002578 1.970709
-6.8199039 -13.002578 2.231709
-5.2199039 -13.002578 2.360709
-4.7199039 -13.002578 2.385709
-4.0199041 -13.002578 2.445709
-3.119904 -13.002578 2.514709
-2.619904 -13.002578 2.5587089
-0.019904001 -13.002578 2.7757089
0.28009599 -13.002578 2.8067091
1.380096 -13.002578 2.9047091
3.080096 -13.002578 3.063709
3.380096 -13.002578 3.1187091
7.6800961 -13.002578 3.6487091
8.3800964 -13.002578 3.7507091
8.8800964 -13.002578 3.8427091
9.1800957 -13.002578 3.892709
9.7800961 -13.002578 3.994709
10.780096 -13.002578 4.2017088
11.380096 -13.002578 4.2657089
11.680096 -13.002578 4.2947092
12.380096 -13.002578 4.415709
12.880096 -13.002578 4.5067091
14.080096 -13.002578 4.7087088
14.580096 -13.002578 4.790709
15.380096 -13.002578 4.928709
15.580096 -13.002578 4.9597092
16.180096 -13.002578 5.0267091
16.680096 -13.002578 5.1227088
17.080095 -13.002578 5.1507092
17.780096 -13.002578 5.2637091
18.280096 -13.002578 5.3577089
18.580095 -13.002578 5.4107089
19.380096 -13.002578 5.5097089
19.780096 -13.002578 5.5577092
19.980097 -13.002578 5.593709
20.280096 -13.002578 5.4067092
-9.1199036 -13.102578 2.017709
-8.1199036 -13.102578 2.149709
-7.4199042 -13.102578 2.208709
-6.119904 -13.102578 2.297709
-2.0199039 -13.102578 2.6377089
-0.51990402 -13.102578 2.747709
1.080096 -13.102578 2.8717091
1.7800961 -13.102578 2.965709
2.1800959 -13.102578 2.9907091
3.9800961 -13.102578 3.198709
4.6800961 -13.102578 3.2757089
5.2800961 -13.102578 3.3387091
5.7800961 -13.102578 3.415709
6.7800961 -13.102578 3.5427091
7.0800958 -13.102578 3.5717089
9.3800964 -13.102578 3.9577091
9.9800959 -13.102578 4.066709
10.180096 -13.102578 4.1077089
10.380096 -13.102578 4.152709
10.580096 -13.102578 4.165709
10.980096 -13.102578 4.2557092
11.180096 -13.102578 4.271709
11.980096 -13.102578 4.3927088
12.180096 -13.102578 4.4327092
13.180096 -13.102578 4.586709
13.380096 -13.102578 4.613709
13.580096 -13.102578 4.6607089
13.780096 -13.102578 4.6827092
14.380096 -13.102578 4.7867088
14.980096 -13.102578 4.8937092
15.180096 -13.102578 4.9457092
15.780096 -13.102578 5.0457091
15.980096 -13.102578 5.0577092
16.380096 -13.102578 5.1367092
16.880096 -13.102578 5.205709
17.380096 -13.102578 5.2797089
17.580095 -13.102578 5.3067088
17.880096 -13.102578 5.3477092
18.880096 -13.102578 5.4767089
19.080095 -13.102578 5.5157089
19.280096 -13.102578 5.5517092
19.480097 -13.102578 5.5567088
19.680096 -13.102578 5.5967088
19.880096 -13.102578 5.6257091
20.080095 -13.102578 5.4677091
-5.5199041 -13.202578 2.3707089
-1.519904 -13.202578 2.6707089
-0.81990403 -13.202578 2.7337091
3.580096 -13.202578 3.159709
4.9800959 -13.202578 3.3487091
6.0800958 -13.202578 3.464709
6.4800959 -13.202578 3.5367091
7.380096 -13.202578 3.658709
7.880096 -13.202578 3.748709
8.1800957 -13.202578 3.787709
8.6800957 -13.202578 3.883709
9.0800962 -13.202578 3.942709
9.5800962 -13.202578 4.0367088
11.480096 -13.202578 4.3397088
12.480096 -13.202578 4.5177088
12.680096 -13.202578 4.5367088
13.980096 -13.202578 4.7667089
14.680096 -13.202578 4.8977089
15.380096 -13.202578 5.0397091
15.580096 -13.202578 5.0587091
16.080095 -13.202578 5.1477089
16.480097 -13.202578 5.2027092
16.680096 -13.202578 5.2067089
17.080095 -13.202578 5.3077092
17.980097 -13.202578 5.415709
18.280096 -13.202578 5.474709
18.480097 -13.202578 5.5047088
18.680096 -13.202578 5.5237088
19.380096 -13.202578 5.6097088
19.580095 -13.202578 5.6507092
19.780096 -13.202578 5.6687088
-8.6199036 -13.302578 2.1157091
-7.119904 -13.302578 2.2727089
-5.0199041 -13.302578 2.418709
-4.4199042 -13.302578 2.464709
-3.8199041 -13.302578 2.4927089
-3.3199041 -13.302578 2.5397091
-2.3199041 -13.302578 2.629709
-1.119904 -13.302578 2.7227089
-0.21990401 -13.302578 2.8027091
0.080095999 -13.302578 2.817709
0.48009601 -13.302578 2.8647089
0.88009602 -13.302578 2.9007089
1.580096 -13.302578 2.9677091
1.980096 -13.302578 3.010709
2.580096 -13.302578 3.0717089
3.080096 -13.302578 3.123709
7.5800958 -13.302578 3.7397089
8.3800964 -13.302578 3.8677089
8.8800964 -13.302578 4.0167089
9.3800964 -13.302578 4.0637088
9.8800964 -13.302578 4.1687088
10.280096 -13.302578 4.1967092
10.680096 -13.302578 4.2547088
10.880096 -13.302578 4.3187089
11.080096 -13.302578 4.3337088
11.680096 -13.302578 4.4187088
11.980096 -13.302578 4.488709
12.880096 -13.302578 4.6257091
13.280096 -13.302578 4.6767092
13.480096 -13.302578 4.725709
13.780096 -13.302578 4.7817092
14.180096 -13.302578 4.863709
14.380096 -13.302578 4.8847089
14.980096 -13.302578 5.0027089
15.180096 -13.302578 5.0357089
15.780096 -13.302578 5.1427088
16.580095 -13.302578 5.2757092
16.780096 -13.302578 5.3197088
17.480097 -13.302578 5.4167089
17.680096 -13.302578 5.474709
17.980097 -13.302578 5.5357089
18.180096 -13.302578 5.5267091
18.380096 -13.302578 5.553709
18.580095 -13.302578 5.5617089
18.780096 -13.302578 5.6017089
18.980097 -13.302578 5.6057091
19.280096 -13.302578 5.6817088
19.480097 -13.302578 5.7007089
-6.7199039 -13.402578 2.326709
-0.61990398 -13.402578 2.783709
1.2800961 -13.402578 2.9377091
3.7800961 -13.402578 3.244709
4.380096 -13.402578 3.3097091
4.7800961 -13.402578 3.3557091
5.2800961 -13.402578 3.4317091
5.5800958 -13.402578 3.465709
6.1800961 -13.402578 3.557709
6.6800961 -13.402578 3.6277089
6.9800959 -13.402578 3.679709
7.2800961 -13.402578 3.7237091
7.9800959 -13.402578 3.8487091
8.5800962 -13.402578 3.9567089
9.0800962 -13.402578 4.034709
9.5800962 -13.402578 4.1167092
10.080096 -13.402578 4.2417092
10.480096 -13.402578 4.2817092
11.280096 -13.402578 4.4207091
12.180096 -13.402578 4.566709
12.680096 -13.402578 4.6647091
13.080096 -13.402578 4.725709
14.780096 -13.402578 5.0267091
15.480096 -13.402578 5.1627092
15.880096 -13.402578 5.2277088
16.280096 -13.402578 5.2807088
17.180096 -13.402578 5.4277091
17.780096 -13.402578 5.5567088
18.280096 -13.402578 5.6147089
18.880096 -13.402578 5.672709
19.180096 -13.402578 5.731709
19.380096 -13.402578 5.698709
19.480097 -13.402578 5.6037092
-8.1199036 -13.502578 2.2167089
-5.8199039 -13.502578 2.4107089
-2.919904 -13.502578 2.6087091
-1.919904 -13.502578 2.6967089
0.28009599 -13.502578 2.8807089
3.2800961 -13.502578 3.192709
4.0800958 -13.502578 3.2897091
5.880096 -13.502578 3.5327089
7.6800961 -13.502578 3.8447089
9.3800964 -13.502578 4.146709
10.680096 -13.502578 4.3657088
11.480096 -13.502578 4.4907088
11.680096 -13.502578 4.5397091
11.980096 -13.502578 4.587709
12.480096 -13.502578 4.6777091
13.380096 -13.502578 4.843709
13.580096 -13.502578 4.8647089
13.780096 -13.502578 4.909709
14.080096 -13.502578 4.9517088
14.280096 -13.502578 4.9987092
14.480096 -13.502578 5.0487089
14.980096 -13.502578 5.139709
15.280096 -13.502578 5.1837091
15.580096 -13.502578 5.2527089
16.080095 -13.502578 5.3287091
16.380096 -13.502578 5.3607092
16.680096 -13.502578 5.4127092
16.880096 -13.502578 5.4447088
17.680096 -13.502578 5.5987091
17.880096 -13.502578 5.6147089
18.180096 -13.502578 5.6827092
