# .PCD v0.7 - Point Cloud Data file format
VERSION 0.7
FIELDS x y z
SIZE 4 4 4
TYPE F F F
COUNT 1 1 1
WIDTH 1512
HEIGHT 1
VIEWPOINT 0 0 0 1 0 0 0
POINTS 1512
DATA ascii
22.502096 -0.27157801 -0.55229098
17.402096 -0.27157801 -4.2842908
10.302096 -0.27157801 -3.6282909
8.8020964 -0.27157801 -3.6082909
8.5020962 -0.27157801 -4.1002908
8.1020956 -0.27157801 -4.0872908
6.702096 -0.27157801 -4.0212908
6.202096 -0.27157801 -4.0132909
5.8020959 -0.27157801 -3.9902911
5.202096 -0.27157801 -3.972291
4.202096 -0.27157801 -3.966291
3.1020961 -0.27157801 -3.889291
0.30209601 -0.27157801 -3.4042909
-1.597904 -0.27157801 -3.343291
-2.3979039 -0.27157801 -3.331291
-3.6979041 -0.27157801 -3.3362911
-8.297904 -0.27157801 -3.192291
-11.797904 -0.27157801 -3.2212911
-14.997904 -0.27157801 -3.554291
-17.097904 -0.27157801 -3.669291
-17.797903 -0.27157801 -3.663291
-21.397903 -0.27157801 -3.929291
-23.397903 -0.27157801 -4.2032909
-24.197905 -0.27157801 -4.3102908
-25.097904 -0.27157801 -4.3832908
-25.397903 -0.27157801 -4.3942909
-25.897903 -0.27157801 -4.3912911
27.402096 -0.37157801 1.613709
20.002096 -0.37157801 -2.2102909
19.302095 -0.37157801 -3.074291
19.102097 -0.37157801 -3.4012909
18.802095 -0.37157801 -3.9872911
18.402096 -0.37157801 -4.5862908
18.102097 -0.37157801 -4.5352912
17.802095 -0.37157801 -4.4202909
16.402096 -0.37157801 -4.0212908
15.102096 -0.37157801 -3.7142911
14.702096 -0.37157801 -3.6522911
4.8020959 -0.37157801 -3.959291
2.3020959 -0.37157801 -3.692291
1.802096 -0.37157801 -3.6192911
0.90209597 -0.37157801 -3.4642911
-0.79790401 -0.37157801 -3.3482909
-6.5979042 -0.37157801 -3.2492909
-9.0979042 -0.37157801 -3.1982911
-9.9979038 -0.37157801 -3.2072909
-12.697904 -0.37157801 -3.2662909
-13.797904 -0.37157801 -3.387291
-14.497904 -0.37157801 -3.4962909
-18.597904 -0.37157801 -3.6812911
-19.997904 -0.37157801 -3.774291
-20.897903 -0.37157801 -3.8682909
-21.697905 -0.37157801 -3.9772911
-22.097904 -0.37157801 -4.0262909
-22.597904 -0.37157801 -4.0872908
-22.997904 -0.37157801 -4.143291
-23.897903 -0.37157801 -4.2692909
19.602097 -0.471578 -2.5502911
18.602097 -0.471578 -4.314291
15.802096 -0.471578 -3.8722911
14.302096 -0.471578 -3.584291
13.802096 -0.471578 -3.5192909
13.402096 -0.471578 -3.4352911
12.402096 -0.471578 -3.3232911
12.002096 -0.471578 -3.7002909
9.9020958 -0.471578 -3.5962911
9.5020962 -0.471578 -3.570291
8.8020964 -0.471578 -3.9502909
7.3020959 -0.471578 -4.0402908
5.5020962 -0.471578 -3.9742911
2.8020959 -0.471578 -3.771291
-0.39790401 -0.471578 -3.357291
-3.297904 -0.471578 -3.3322909
-4.297904 -0.471578 -3.2962911
-5.1979041 -0.471578 -3.2792909
-6.1979041 -0.471578 -3.2702911
-7.5979042 -0.471578 -3.229291
-11.397904 -0.471578 -3.215291
-12.297904 -0.471578 -3.2462909
-13.297904 -0.471578 -3.330291
-15.397904 -0.471578 -3.5862911
-16.597904 -0.471578 -3.646291
-17.397903 -0.471578 -3.672291
-19.197905 -0.471578 -3.718291
-19.597904 -0.471578 -3.7602911
-20.497904 -0.471578 -3.8332911
-24.897903 -0.471578 -4.341291
17.202097 -0.57157803 -4.2862911
16.702097 -0.57157803 -4.1182909
15.402096 -0.57157803 -3.775291
11.702096 -0.57157803 -3.7722909
11.102096 -0.57157803 -3.7072909
10.702096 -0.57157803 -3.689291
8.3020964 -0.57157803 -4.0952911
7.9020958 -0.57157803 -4.084291
4.0020962 -0.57157803 -3.968291
3.5020959 -0.57157803 -3.9282911
1.402096 -0.57157803 -3.5042911
0.0020959999 -0.57157803 -3.3522911
-1.297904 -0.57157803 -3.321291
-2.097904 -0.57157803 -3.307291
-2.797904 -0.57157803 -3.324291
-5.797904 -0.57157803 -3.2602911
-8.6979036 -0.57157803 -3.1982911
-10.397904 -0.57157803 -3.209291
-10.997904 -0.57157803 -3.1982911
-14.197904 -0.57157803 -3.462291
-15.897904 -0.57157803 -3.616291
-18.297903 -0.57157803 -3.663291
-24.597904 -0.57157803 -4.3102908
-25.297903 -0.57157803 -4.3392911
-25.597904 -0.57157803 -4.3372908
-25.897903 -0.57157803 -4.2802911
26.902096 -0.67157799 1.1537091
21.102097 -0.67157799 -1.775291
20.602097 -0.67157799 -2.037291
19.402096 -0.67157799 -2.876291
19.002096 -0.67157799 -3.584291
18.402096 -0.67157799 -4.6082911
18.002096 -0.67157799 -4.5432911
17.602097 -0.67157799 -4.400291
13.002096 -0.67157799 -3.3382909
12.202096 -0.67157799 -3.7232909
9.202096 -0.67157799 -3.5722909
8.9020958 -0.67157799 -4.1002908
8.6020956 -0.67157799 -4.1202912
6.1020961 -0.67157799 -4.0062909
5.202096 -0.67157799 -3.962291
2.5020959 -0.67157799 -3.673291
-1.697904 -0.67157799 -3.2922909
-9.6979036 -0.67157799 -3.205291
-16.297903 -0.67157799 -3.633291
-16.897903 -0.67157799 -3.6702909
-17.897903 -0.67157799 -3.6512909
-21.797903 -0.67157799 -3.9812911
-22.897903 -0.67157799 -4.1092911
-23.197905 -0.67157799 -4.1552911
-24.097904 -0.67157799 -4.2632909
21.702097 -0.77157801 -1.513291
19.202097 -0.77157801 -3.241291
18.702097 -0.77157801 -4.1482911
16.102097 -0.77157801 -3.962291
15.002096 -0.77157801 -3.699291
3.1020961 -0.77157801 -3.785291
2.0020959 -0.77157801 -3.5592909
0.80209601 -0.77157801 -3.410291
-4.6979041 -0.77157801 -3.258291
-6.5979042 -0.77157801 -3.252291
-8.297904 -0.77157801 -3.2032909
-11.897904 -0.77157801 -3.241291
-12.997904 -0.77157801 -3.331291
-13.597904 -0.77157801 -3.4072909
-14.997904 -0.77157801 -3.5622909
-15.597904 -0.77157801 -3.6022911
-21.097904 -0.77157801 -3.9052911
-21.497904 -0.77157801 -3.952291
-22.597904 -0.77157801 -4.0602908
-23.497904 -0.77157801 -4.1872911
-23.797903 -0.77157801 -4.215291
-24.997904 -0.77157801 -4.3002911
27.902096 -0.87157798 1.776709
20.102097 -0.87157798 -2.4072909
16.502096 -0.87157798 -4.0662909
15.702096 -0.87157798 -3.8492911
14.202096 -0.87157798 -3.5762911
13.602096 -0.87157798 -3.4702909
12.602096 -0.87157798 -3.3352909
12.402096 -0.87157798 -3.633291
11.902096 -0.87157798 -3.8192911
11.302096 -0.87157798 -3.7462909
9.9020958 -0.87157798 -3.5982909
7.5020962 -0.87157798 -4.0552912
6.8020959 -0.87157798 -4.0402908
6.4020958 -0.87157798 -4.0262909
5.5020962 -0.87157798 -3.9942911
4.4020958 -0.87157798 -3.9832909
-0.29790401 -0.87157798 -3.314291
-2.4979041 -0.87157798 -3.2722909
-3.3979039 -0.87157798 -3.271291
-3.797904 -0.87157798 -3.2602911
-4.1979041 -0.87157798 -3.2472911
-6.9979038 -0.87157798 -3.2402911
-8.9979038 -0.87157798 -3.1682911
-10.097904 -0.87157798 -3.186291
-12.397904 -0.87157798 -3.275291
-17.397903 -0.87157798 -3.6642909
-18.497904 -0.87157798 -3.6912911
-18.997904 -0.87157798 -3.722291
-19.697905 -0.87157798 -3.768291
-20.097904 -0.87157798 -3.7932911
-22.097904 -0.87157798 -4.0012908
-24.397903 -0.87157798 -4.2542911
-24.697905 -0.87157798 -4.2722912
25.102097 -0.971578 -0.249291
22.402096 -0.971578 -1.308291
19.702097 -0.971578 -2.640291
18.602097 -0.971578 -4.3092909
18.102097 -0.971578 -4.6192908
17.702097 -0.971578 -4.4762912
17.402096 -0.971578 -4.386291
16.902096 -0.971578 -4.2142911
14.702096 -0.971578 -3.6522911
10.402096 -0.971578 -3.6642909
9.3020964 -0.971578 -3.8282909
8.8020964 -0.971578 -4.1112909
8.0020962 -0.971578 -4.0682912
5.9020958 -0.971578 -3.9962909
5.0020962 -0.971578 -3.989291
3.6020961 -0.971578 -3.8822911
1.402096 -0.971578 -3.4472909
0.402096 -0.971578 -3.3322909
-2.9979041 -0.971578 -3.285291
-5.8979039 -0.971578 -3.255291
-14.097904 -0.971578 -3.462291
-18.097904 -0.971578 -3.659291
-20.697905 -0.971578 -3.850291
-23.097904 -0.971578 -4.1142912
-24.097904 -0.971578 -4.215291
-25.297903 -0.971578 -4.2722912
-25.797903 -0.971578 -4.1932912
19.402096 -1.071578 -2.9212911
18.402096 -1.071578 -4.6262908
13.202096 -1.071578 -3.3452909
12.402096 -1.071578 -3.8692911
11.602096 -1.071578 -3.7862909
4.0020962 -1.071578 -3.9572909
2.702096 -1.071578 -3.646291
2.202096 -1.071578 -3.5502911
-0.79790401 -1.071578 -3.2772911
-5.3979039 -1.071578 -3.2532909
-7.6979041 -1.071578 -3.2202909
-9.3979044 -1.071578 -3.1712911
-10.797904 -1.071578 -3.1882911
-11.197904 -1.071578 -3.2072909
-13.297904 -1.071578 -3.3622911
-14.497904 -1.071578 -3.5002911
-15.897904 -1.071578 -3.6222911
-16.397903 -1.071578 -3.6672909
-19.397903 -1.071578 -3.741291
-23.697905 -1.071578 -4.1812911
23.902096 -1.171578 -0.94229102
21.502096 -1.171578 -1.9992909
19.202097 -1.171578 -3.2332909
18.702097 -1.171578 -4.1002908
17.902096 -1.171578 -4.5692911
16.602097 -1.171578 -4.1152911
15.902096 -1.171578 -3.9212911
15.502096 -1.171578 -3.8162911
15.002096 -1.171578 -3.705291
13.902096 -1.171578 -3.5042911
9.6020956 -1.171578 -3.663291
9.3020964 -1.171578 -4.1222911
8.3020964 -1.171578 -4.0882912
7.702096 -1.171578 -4.0662909
7.0020962 -1.171578 -4.037291
0.90209597 -1.171578 -3.3652911
-1.297904 -1.171578 -3.2542911
-8.1979036 -1.171578 -3.1972909
-9.797904 -1.171578 -3.1702909
-15.297904 -1.171578 -3.590291
-17.197905 -1.171578 -3.6682911
-17.597904 -1.171578 -3.6612909
-18.797903 -1.171578 -3.702291
-19.897903 -1.171578 -3.7722909
-21.697905 -1.171578 -3.9732909
-22.497904 -1.171578 -4.0452909
-22.797903 -1.171578 -4.077291
-23.397903 -1.171578 -4.149291
-24.397903 -1.171578 -4.2052908
-24.897903 -1.171578 -4.2112908
-25.597904 -1.171578 -4.1732912
21.002096 -1.271578 -2.3192911
18.902096 -1.271578 -3.8022909
18.502096 -1.271578 -4.4632912
17.302095 -1.271578 -4.347291
16.302095 -1.271578 -4.0132909
14.302096 -1.271578 -3.5752909
10.902096 -1.271578 -3.705291
10.002096 -1.271578 -3.650291
8.702096 -1.271578 -4.0992908
6.1020961 -1.271578 -4.0172911
4.3020959 -1.271578 -3.9842911
3.402096 -1.271578 -3.762291
1.902096 -1.271578 -3.462291
0.102096 -1.271578 -3.264291
-0.29790401 -1.271578 -3.252291
-1.9979039 -1.271578 -3.2312911
-2.6979041 -1.271578 -3.2592909
-4.3979039 -1.271578 -3.2332909
-10.397904 -1.271578 -3.179291
-11.897904 -1.271578 -3.248291
-12.297904 -1.271578 -3.2772911
-13.897904 -1.271578 -3.4402909
-16.697905 -1.271578 -3.679291
-21.297903 -1.271578 -3.932291
-24.097904 -1.271578 -4.176291
-25.197905 -1.271578 -4.1922908
27.702097 -1.371578 1.537709
20.502096 -1.371578 -2.6122911
19.802095 -1.371578 -2.8062911
18.102097 -1.371578 -4.649291
17.602097 -1.371578 -4.466291
14.702096 -1.371578 -3.6642909
12.802096 -1.371578 -3.762291
11.802096 -1.371578 -3.8292911
10.402096 -1.371578 -3.6972909
9.6020956 -1.371578 -4.1282911
9.0020962 -1.371578 -4.1152911
6.6020961 -1.371578 -4.0262909
5.1020961 -1.371578 -4.0042911
4.702096 -1.371578 -3.9962909
3.8020959 -1.371578 -3.821291
1.402096 -1.371578 -3.376291
0.502096 -1.371578 -3.2792909
-4.8979039 -1.371578 -3.2312911
-6.3979039 -1.371578 -3.218291
-7.0979042 -1.371578 -3.205291
-11.497904 -1.371578 -3.2112911
-14.697904 -1.371578 -3.534291
-15.697904 -1.371578 -3.6222911
-16.197905 -1.371578 -3.659291
-18.197905 -1.371578 -3.6742909
-19.097904 -1.371578 -3.722291
-20.197905 -1.371578 -3.8022909
-22.097904 -1.371578 -4.0042911
-23.697905 -1.371578 -4.143291
27.102097 -1.471578 0.912709
23.002096 -1.471578 -1.640291
19.402096 -1.471578 -3.0202911
19.202097 -1.471578 -3.357291
18.702097 -1.471578 -4.176291
13.602096 -1.471578 -3.403291
13.102096 -1.471578 -3.347291
12.402096 -1.471578 -3.922291
11.302096 -1.471578 -3.7692909
5.702096 -1.471578 -4.0132909
3.1020961 -1.471578 -3.6442909
2.702096 -1.471578 -3.570291
-1.597904 -1.471578 -3.2132909
-3.297904 -1.471578 -3.2202909
-3.6979041 -1.471578 -3.2102909
-5.297904 -1.471578 -3.2132909
-5.6979041 -1.471578 -3.216291
-8.6979036 -1.471578 -3.1772909
-9.297904 -1.471578 -3.172291
-12.897904 -1.471578 -3.3232911
-14.197904 -1.471578 -3.482291
-20.897903 -1.471578 -3.887291
-21.797903 -1.471578 -3.972291
-22.397903 -1.471578 -4.0062909
-23.097904 -1.471578 -4.071291
-24.397903 -1.471578 -4.1392908
19.002096 -1.571578 -3.6852911
18.402096 -1.571578 -4.6802912
17.102097 -1.571578 -4.2892909
16.702097 -1.571578 -4.156291
15.802096 -1.571578 -3.8842909
15.402096 -1.571578 -3.788291
15.002096 -1.571578 -3.7112911
14.002096 -1.571578 -3.4862909
10.002096 -1.571578 -3.854291
7.5020962 -1.571578 -4.0502911
4.1020961 -1.571578 -3.8332911
-1.097904 -1.571578 -3.2082911
-2.297904 -1.571578 -3.2202909
-4.0979042 -1.571578 -3.1942911
-10.697904 -1.571578 -3.172291
-11.097904 -1.571578 -3.1942911
-14.997904 -1.571578 -3.567291
-17.197905 -1.571578 -3.6512909
-17.597904 -1.571578 -3.6522911
-19.397903 -1.571578 -3.7572911
-19.797903 -1.571578 -3.7862909
-23.397903 -1.571578 -4.0872908
-24.097904 -1.571578 -4.1122909
22.502096 -1.671578 -2.0962911
21.702097 -1.671578 -2.442291
21.002096 -1.671578 -2.689291
20.202097 -1.671578 -2.8842909
18.602097 -1.671578 -4.3692908
18.102097 -1.671578 -4.669291
17.802095 -1.671578 -4.5492911
13.002096 -1.671578 -4.0562911
10.902096 -1.671578 -3.741291
9.9020958 -1.671578 -4.1512909
9.202096 -1.671578 -4.0922909
8.8020964 -1.671578 -4.0872908
8.4020958 -1.671578 -4.070291
8.0020962 -1.671578 -4.0722909
6.8020959 -1.671578 -4.0212908
6.1020961 -1.671578 -4.0222912
5.4020958 -1.671578 -4.0162911
4.6020961 -1.671578 -3.8942909
3.6020961 -1.671578 -3.718291
1.802096 -1.671578 -3.396291
0.202096 -1.671578 -3.216291
-0.29790401 -1.671578 -3.202291
-0.69790399 -1.671578 -3.1932909
-4.5979042 -1.671578 -3.176291
-6.0979042 -1.671578 -3.202291
-7.797904 -1.671578 -3.2032909
-8.297904 -1.671578 -3.182291
-9.6979036 -1.671578 -3.163291
-11.897904 -1.671578 -3.238291
-12.497904 -1.671578 -3.2832911
-13.497904 -1.671578 -3.3752911
-15.497904 -1.671578 -3.600291
-18.397903 -1.671578 -3.689291
-18.897903 -1.671578 -3.7212911
-20.497904 -1.671578 -3.8382909
-21.497904 -1.671578 -3.929291
-22.797903 -1.671578 -4.038291
-23.697905 -1.671578 -4.0812912
-24.897903 -1.671578 -4.104291
-25.297903 -1.671578 -4.0992908
28.402096 -1.771578 2.020709
25.302095 -1.771578 -0.84029102
23.902096 -1.771578 -1.631291
19.702097 -1.771578 -3.0552909
19.302095 -1.771578 -3.2242911
14.602096 -1.771578 -3.6252911
12.602096 -1.771578 -4.0022912
10.402096 -1.771578 -3.7242911
5.1020961 -1.771578 -3.966291
2.902096 -1.771578 -3.557291
2.202096 -1.771578 -3.4372909
1.102096 -1.771578 -3.281291
-4.9979038 -1.771578 -3.196291
-10.297904 -1.771578 -3.1712911
-11.497904 -1.771578 -3.2042911
-14.697904 -1.771578 -3.528291
-22.097904 -1.771578 -3.968291
20.602097 -1.871578 -2.972291
18.802095 -1.871578 -4.0592909
17.502096 -1.871578 -4.4482908
17.202097 -1.871578 -4.3442912
16.902096 -1.871578 -4.242291
16.502096 -1.871578 -4.1052909
16.002096 -1.871578 -3.9412911
15.602096 -1.871578 -3.8382909
13.402096 -1.871578 -3.3792911
13.202096 -1.871578 -3.817291
11.602096 -1.871578 -3.827291
10.302096 -1.871578 -4.0162911
9.5020962 -1.871578 -4.090291
3.3020959 -1.871578 -3.6052909
-1.597904 -1.871578 -3.1612909
-2.8979039 -1.871578 -3.196291
-3.3979039 -1.871578 -3.1682911
-5.3979039 -1.871578 -3.1752911
-8.797904 -1.871578 -3.1772909
-13.997904 -1.871578 -3.4412911
-15.797904 -1.871578 -3.6282909
-16.497904 -1.871578 -3.663291
-16.997904 -1.871578 -3.6452911
-20.197905 -1.871578 -3.8182909
-22.397903 -1.871578 -3.985291
-23.297903 -1.871578 -4.0392909
-24.097904 -1.871578 -4.0552912
-24.497904 -1.871578 -4.057291
23.402096 -1.971578 -2.064291
22.102097 -1.971578 -2.6352911
21.602097 -1.971578 -2.844291
18.602097 -1.971578 -4.3882909
18.002096 -1.971578 -4.6522908
14.902096 -1.971578 -3.686291
13.202096 -1.971578 -4.1282911
12.102096 -1.971578 -3.9212911
8.202096 -1.971578 -4.0612912
7.1020961 -1.971578 -4.0352912
5.5020962 -1.971578 -4.0002909
4.5020962 -1.971578 -3.788291
2.6020961 -1.971578 -3.4642911
0.70209599 -1.971578 -3.2042911
-1.9979039 -1.971578 -3.1472909
-2.3979039 -1.971578 -3.1642909
-3.797904 -1.971578 -3.149291
-4.297904 -1.971578 -3.150291
-5.797904 -1.971578 -3.182291
-6.5979042 -1.971578 -3.1852911
-7.3979039 -1.971578 -3.183291
-10.997904 -1.971578 -3.182291
-13.197904 -1.971578 -3.3582909
-18.097904 -1.971578 -3.673291
-19.497904 -1.971578 -3.762291
-20.797903 -1.971578 -3.8692911
-21.197905 -1.971578 -3.887291
-21.697905 -1.971578 -3.9182911
-23.797903 -1.971578 -4.0282912
-24.997904 -1.971578 -4.0552912
24.802095 -2.071578 -1.482291
22.602097 -2.071578 -2.5072911
19.202097 -2.071578 -3.462291
19.002096 -2.071578 -3.752291
18.402096 -2.071578 -4.7202911
14.102096 -2.071578 -3.4812911
12.902096 -2.071578 -4.0732908
11.202096 -2.071578 -3.8052909
10.802096 -2.071578 -3.8052909
9.8020964 -2.071578 -4.0762911
9.202096 -2.071578 -4.0622911
7.5020962 -2.071578 -4.0432911
6.3020959 -2.071578 -4.0392909
5.202096 -2.071578 -3.900291
4.1020961 -2.071578 -3.695291
0.30209601 -2.071578 -3.1612909
-0.39790401 -2.071578 -3.1282909
-1.097904 -2.071578 -3.1312909
-6.1979041 -2.071578 -3.182291
-6.9979038 -2.071578 -3.1852911
-7.9979038 -2.071578 -3.1912911
-8.3979044 -2.071578 -3.1812911
-9.4979038 -2.071578 -3.182291
-12.197904 -2.071578 -3.2542911
-12.797904 -2.071578 -3.308291
-13.597904 -2.071578 -3.380291
-14.297904 -2.071578 -3.4732909
-14.897904 -2.071578 -3.5522909
-15.497904 -2.071578 -3.6082909
-17.497904 -2.071578 -3.636291
-18.997904 -2.071578 -3.735291
-25.297903 -2.071578 -3.979291
28.802095 -2.1715779 2.0927091
21.202097 -2.1715779 -3.2082911
20.702097 -2.1715779 -3.2792909
19.702097 -2.1715779 -3.380291
18.802095 -2.1715779 -4.0962911
17.602097 -2.1715779 -4.4902911
17.102097 -2.1715779 -4.3112912
16.202097 -2.1715779 -4.0092912
15.802096 -2.1715779 -3.9212911
15.202096 -2.1715779 -3.7822909
14.502096 -2.1715779 -3.567291
13.702096 -2.1715779 -3.439291
12.602096 -2.1715779 -4.011291
11.802096 -2.1715779 -3.8942909
10.702096 -2.1715779 -4.0852909
10.402096 -2.1715779 -4.0942912
8.702096 -2.1715779 -4.0612912
6.8020959 -2.1715779 -4.044291
5.8020959 -2.1715779 -3.972291
1.702096 -2.1715779 -3.3162911
-4.6979041 -2.1715779 -3.146291
-10.397904 -2.1715779 -3.176291
-11.797904 -2.1715779 -3.225291
-16.197905 -2.1715779 -3.653291
-18.497904 -2.1715779 -3.7132909
-22.197905 -2.1715779 -3.945291
-22.797903 -2.1715779 -3.9712911
-23.197905 -2.1715779 -3.982291
-24.297903 -2.1715779 -4.0072908
-24.697905 -2.1715779 -4.0162911
24.302095 -2.2715781 -1.9992909
22.402096 -2.2715781 -2.8652911
21.802095 -2.2715781 -3.1352911
20.102097 -2.2715781 -3.4482911
16.602097 -2.2715781 -4.137291
13.502096 -2.2715781 -3.910291
10.102096 -2.2715781 -4.084291
8.3020964 -2.2715781 -4.0532908
7.9020958 -2.2715781 -4.0562911
4.8020959 -2.2715781 -3.7532909
4.4020958 -2.2715781 -3.6752911
2.202096 -2.2715781 -3.357291
-3.4979041 -2.2715781 -3.1212909
-5.0979042 -2.2715781 -3.139291
-8.9979038 -2.2715781 -3.1702909
-9.9979038 -2.2715781 -3.1702909
-15.197904 -2.2715781 -3.594291
-16.997904 -2.2715781 -3.6452911
-17.897903 -2.2715781 -3.662291
-19.797903 -2.2715781 -3.788291
-20.497904 -2.2715781 -3.840291
-21.497904 -2.2715781 -3.889291
-23.897903 -2.2715781 -3.9742911
28.102097 -2.371578 1.583709
23.502096 -2.371578 -2.514291
23.002096 -2.371578 -2.712291
21.002096 -2.371578 -3.5072911
20.502096 -2.371578 -3.5222909
19.302095 -2.371578 -3.5922911
18.702097 -2.371578 -4.4032912
18.402096 -2.371578 -4.735291
18.102097 -2.371578 -4.682291
17.402096 -2.371578 -4.4162912
11.402096 -2.371578 -3.8682909
11.002096 -2.371578 -4.1342912
9.5020962 -2.371578 -4.051291
9.1020956 -2.371578 -4.0552912
6.5020962 -2.371578 -4.024291
3.702096 -2.371578 -3.574291
3.3020959 -2.371578 -3.501291
2.902096 -2.371578 -3.4312911
-2.4979041 -2.371578 -3.0992911
-3.097904 -2.371578 -3.1282909
-4.297904 -2.371578 -3.110291
-6.4979038 -2.371578 -3.1682911
-11.297904 -2.371578 -3.2032909
-13.197904 -2.371578 -3.327291
-13.997904 -2.371578 -3.4302909
-15.797904 -2.371578 -3.6252911
-16.497904 -2.371578 -3.659291
-19.297903 -2.371578 -3.7632909
-21.897903 -2.371578 -3.910291
-23.597904 -2.371578 -3.966291
26.202097 -2.4715779 -0.33329099
25.602097 -2.4715779 -0.95229101
24.802095 -2.4715779 -1.776291
21.502096 -2.4715779 -3.491291
19.802095 -2.4715779 -3.6292911
19.002096 -2.4715779 -3.8462911
16.302095 -2.4715779 -4.077291
15.402096 -2.4715779 -3.8162911
14.802096 -2.4715779 -3.6482911
14.202096 -2.4715779 -3.485291
13.502096 -2.4715779 -4.169291
13.202096 -2.4715779 -4.1292911
12.402096 -2.4715779 -4.0262909
10.502096 -2.4715779 -4.077291
8.6020956 -2.4715779 -4.0422912
6.202096 -2.4715779 -3.9412911
5.6020961 -2.4715779 -3.8252909
4.1020961 -2.4715779 -3.581291
1.302096 -2.4715779 -3.215291
0.90209597 -2.4715779 -3.153291
0.402096 -2.4715779 -3.100291
-1.197904 -2.4715779 -3.067291
-1.797904 -2.4715779 -3.0752909
-5.797904 -2.4715779 -3.139291
-6.8979039 -2.4715779 -3.163291
-7.297904 -2.4715779 -3.1752911
-8.4979038 -2.4715779 -3.169291
-9.3979044 -2.4715779 -3.1702909
-12.097904 -2.4715779 -3.235291
-12.797904 -2.4715779 -3.2832911
-14.597904 -2.4715779 -3.502291
-18.797903 -2.4715779 -3.729291
-22.497904 -2.4715779 -3.9172909
-22.997904 -2.4715779 -3.9342909
-24.397903 -2.4715779 -3.956291
-24.997904 -2.4715779 -3.9412911
-25.297903 -2.4715779 -3.9022911
28.702097 -2.571578 1.817709
22.002096 -2.571578 -3.4182911
20.302095 -2.571578 -3.7572911
18.602097 -2.571578 -4.6192908
17.702097 -2.571578 -4.5342908
17.102097 -2.571578 -4.3252912
16.802095 -2.571578 -4.2332911
12.902096 -2.571578 -4.1152911
12.002096 -2.571578 -3.9712911
11.702096 -2.571578 -4.1222911
11.302096 -2.571578 -4.1052909
10.202096 -2.571578 -4.0622911
9.8020964 -2.571578 -4.0482912
8.1020956 -2.571578 -4.0332909
7.3020959 -2.571578 -4.012291
6.9020958 -2.571578 -4.0062909
5.202096 -2.571578 -3.718291
4.702096 -2.571578 -3.627291
0.0020959999 -2.571578 -3.0592909
-7.6979041 -2.571578 -3.169291
-10.697904 -2.571578 -3.179291
-11.697904 -2.571578 -3.2212911
-13.697904 -2.571578 -3.370291
-14.997904 -2.571578 -3.5532911
-15.397904 -2.571578 -3.5962911
-17.197905 -2.571578 -3.6282909
-17.597904 -2.571578 -3.636291
-18.297903 -2.571578 -3.6972909
-19.597904 -2.571578 -3.762291
-20.197905 -2.571578 -3.807291
-20.897903 -2.571578 -3.8382909
24.302095 -2.6715779 -2.3842909
23.902096 -2.6715779 -2.650291
22.902096 -2.6715779 -3.1222911
22.402096 -2.6715779 -3.3522911
21.402096 -2.6715779 -3.7892909
20.802095 -2.6715779 -3.867291
19.502096 -2.6715779 -3.811291
18.802095 -2.6715779 -4.2642908
18.302095 -2.6715779 -4.729291
18.002096 -2.6715779 -4.6382909
17.402096 -2.6715779 -4.426291
15.802096 -2.6715779 -3.9212911
15.102096 -2.6715779 -3.719291
13.702096 -2.6715779 -4.1672912
8.9020958 -2.6715779 -4.0332909
7.6020961 -2.6715779 -4.018291
6.5020962 -2.6715779 -3.9442911
3.5020959 -2.6715779 -3.4702909
2.6020961 -2.6715779 -3.343291
2.202096 -2.6715779 -3.3102911
-0.69790399 -2.6715779 -3.011291
-2.797904 -2.6715779 -3.0762911
-3.3979039 -2.6715779 -3.0982909
-3.9979041 -2.6715779 -3.081291
-4.6979041 -2.6715779 -3.0952909
-6.1979041 -2.6715779 -3.1312909
-16.097904 -2.6715779 -3.6472909
-21.597904 -2.6715779 -3.8792911
-23.997904 -2.6715779 -3.9282911
-24.697905 -2.6715779 -3.9042909
23.602097 -2.7715781 -2.9642911
19.902096 -2.7715781 -3.9212911
14.002096 -2.7715781 -3.5792911
13.902096 -2.7715781 -3.890291
13.402096 -2.7715781 -4.1872911
8.5020962 -2.7715781 -4.0162911
6.1020961 -2.7715781 -3.8182909
4.4020958 -2.7715781 -3.5652909
3.1020961 -2.7715781 -3.3922911
1.802096 -2.7715781 -3.229291
-2.097904 -2.7715781 -3.021291
-5.0979042 -2.7715781 -3.094291
-11.097904 -2.7715781 -3.176291
-14.197904 -2.7715781 -3.4282911
-20.597904 -2.7715781 -3.8122909
-22.197905 -2.7715781 -3.8782909
-25.097904 -2.7715781 -3.8562911
22.802095 -2.871578 -3.459291
22.202097 -2.871578 -3.6902909
21.802095 -2.871578 -3.923291
21.202097 -2.871578 -4.0762911
20.602097 -2.871578 -4.1092911
20.202097 -2.871578 -4.0562911
19.002096 -2.871578 -4.077291
18.702097 -2.871578 -4.5262909
18.502096 -2.871578 -4.7342911
17.702097 -2.871578 -4.525291
16.602097 -2.871578 -4.1752911
13.102096 -2.871578 -4.1482911
12.102096 -2.871578 -4.090291
10.802096 -2.871578 -4.0612912
10.402096 -2.871578 -4.0502911
10.002096 -2.871578 -4.044291
9.5020962 -2.871578 -4.031291
8.202096 -2.871578 -4.011291
7.0020962 -2.871578 -3.9432909
5.6020961 -2.871578 -3.699291
4.0020962 -2.871578 -3.482291
1.202096 -2.871578 -3.130291
0.80209601 -2.871578 -3.0652909
0.30209601 -2.871578 -3.0192909
-0.29790401 -2.871578 -2.9972911
-1.097904 -2.871578 -2.9842911
-5.4979038 -2.871578 -3.103291
-6.8979039 -2.871578 -3.1382909
-8.297904 -2.871578 -3.1422911
-9.797904 -2.871578 -3.1712911
-10.297904 -2.871578 -3.1772909
-11.997904 -2.871578 -3.2312911
-15.797904 -2.871578 -3.6192911
-16.897903 -2.871578 -3.6352911
-17.397903 -2.871578 -3.613291
-17.797903 -2.871578 -3.6452911
-18.697905 -2.871578 -3.699291
-19.197905 -2.871578 -3.7302909
-21.097904 -2.871578 -3.8192911
-22.597904 -2.871578 -3.866291
-23.497904 -2.871578 -3.8822911
28.402096 -2.9715779 1.4217089
27.802095 -2.9715779 1.033709
25.402096 -2.9715779 -1.466291
24.002096 -2.9715779 -2.909291
19.502096 -2.9715779 -4.0722909
18.202097 -2.9715779 -4.6932912
17.202097 -2.9715779 -4.3742909
14.602096 -2.9715779 -3.616291
12.402096 -2.9715779 -4.1012912
11.802096 -2.9715779 -4.0732908
11.102096 -2.9715779 -4.0492911
9.1020956 -2.9715779 -4.005291
6.702096 -2.9715779 -3.8682909
5.1020961 -2.9715779 -3.6092911
4.702096 -2.9715779 -3.5562911
-1.4979039 -2.9715779 -2.9762909
-5.8979039 -2.9715779 -3.1052909
-7.8979039 -2.9715779 -3.1422911
-8.9979038 -2.9715779 -3.1542909
-12.397904 -2.9715779 -3.2462909
-12.997904 -2.9715779 -3.2862909
-14.497904 -2.9715779 -3.4632909
-15.097904 -2.9715779 -3.5362909
-19.797903 -2.9715779 -3.7632909
-21.797903 -2.9715779 -3.850291
-24.097904 -2.9715779 -3.844291
24.902096 -3.071578 -2.037291
24.502096 -3.071578 -2.4612911
23.402096 -3.071578 -3.357291
23.102097 -3.071578 -3.508291
21.102097 -3.071578 -4.3262911
20.402096 -3.071578 -4.321291
18.902096 -3.071578 -4.2982912
17.902096 -3.071578 -4.6082911
16.102097 -3.071578 -4.011291
15.702096 -3.071578 -3.877291
14.302096 -3.071578 -3.751291
13.902096 -3.071578 -4.156291
12.802096 -3.071578 -4.1122909
11.402096 -3.071578 -4.0502911
7.3020959 -3.071578 -3.9302909
6.0020962 -3.071578 -3.7142911
3.402096 -3.071578 -3.3652911
2.1020961 -3.071578 -3.2112911
-3.297904 -3.071578 -3.0452909
-3.6979041 -3.071578 -3.0362909
-4.4979038 -3.071578 -3.0422909
-7.297904 -3.071578 -3.1382909
-11.597904 -3.071578 -3.199291
-13.397904 -3.071578 -3.307291
-13.897904 -3.071578 -3.3652911
-15.497904 -3.071578 -3.5732911
-16.397903 -3.071578 -3.6422911
-18.397903 -3.071578 -3.673291
-20.397903 -3.071578 -3.7802911
-21.397903 -3.071578 -3.8182909
-22.897903 -3.071578 -3.8462911
-24.497904 -3.071578 -3.8192911
-24.897903 -3.071578 -3.7952909
22.802095 -3.1715779 -3.5892911
22.502096 -3.1715779 -3.719291
22.202097 -3.1715779 -3.8452909
21.902096 -3.1715779 -3.9702909
21.602097 -3.1715779 -4.0992908
20.802095 -3.1715779 -4.393291
19.902096 -3.1715779 -4.3522911
18.602097 -3.1715779 -4.695291
16.702097 -3.1715779 -4.209291
16.402096 -3.1715779 -4.0952911
15.302096 -3.1715779 -3.7792909
13.402096 -3.1715779 -4.1272912
8.5020962 -3.1715779 -3.9992909
8.1020956 -3.1715779 -3.9942911
7.702096 -3.1715779 -3.9702909
5.4020958 -3.1715779 -3.5852909
2.902096 -3.1715779 -3.2792909
-4.8979039 -3.1715779 -3.044291
-6.4979038 -3.1715779 -3.1092911
-8.5979042 -3.1715779 -3.136291
-11.097904 -3.1715779 -3.1712911
-15.997904 -3.1715779 -3.6122911
-18.897903 -3.1715779 -3.7032909
-20.797903 -3.1715779 -3.785291
-22.197905 -3.1715779 -3.7892909
-23.297903 -3.1715779 -3.807291
30.402096 -3.2715781 2.2457089
30.002096 -3.2715781 2.395709
29.602097 -3.2715781 2.1537089
23.802095 -3.2715781 -3.0892911
21.202097 -3.2715781 -4.1712909
19.502096 -3.2715781 -4.3982911
19.102097 -3.2715781 -4.3312912
14.702096 -3.2715781 -3.8352909
14.302096 -3.2715781 -4.1532912
13.102096 -3.2715781 -4.1142912
10.002096 -3.2715781 -4.0002909
9.3020964 -3.2715781 -3.989291
8.8020964 -3.2715781 -3.978291
6.9020958 -3.2715781 -3.821291
6.5020962 -3.2715781 -3.7632909
4.4020958 -3.2715781 -3.4342909
4.0020962 -3.2715781 -3.409291
2.5020959 -3.2715781 -3.2102909
0.102096 -3.2715781 -2.9472909
-0.497904 -3.2715781 -2.9212911
-0.997904 -3.2715781 -2.899291
-1.9979039 -3.2715781 -2.9272909
-2.6979041 -3.2715781 -2.969291
-5.5979042 -3.2715781 -3.0692911
-9.4979038 -3.2715781 -3.139291
-10.697904 -3.2715781 -3.146291
-14.297904 -3.2715781 -3.419291
-14.797904 -3.2715781 -3.4802909
-17.097904 -3.2715781 -3.591291
-17.497904 -3.2715781 -3.6182909
-19.397903 -3.2715781 -3.719291
-22.597904 -3.2715781 -3.808291
24.102097 -3.371578 -2.8822911
23.302095 -3.371578 -3.2112911
23.002096 -3.371578 -3.3292911
22.302095 -3.371578 -3.636291
22.002096 -3.371578 -3.778291
21.702097 -3.371578 -3.899291
21.402096 -3.371578 -4.024291
20.902096 -3.371578 -4.2302909
20.602097 -3.371578 -4.3612909
20.302095 -3.371578 -4.5032911
20.002096 -3.371578 -4.5822911
18.802095 -3.371578 -4.6132908
18.402096 -3.371578 -4.7082911
18.102097 -3.371578 -4.663291
17.802095 -3.371578 -4.6012912
17.402096 -3.371578 -4.4532909
17.002096 -3.371578 -4.3032908
12.102096 -3.371578 -4.051291
11.302096 -3.371578 -4.0292912
10.802096 -3.371578 -4.018291
10.402096 -3.371578 -4.0042911
9.702096 -3.371578 -3.9612911
5.702096 -3.371578 -3.5952909
1.402096 -3.371578 -3.093291
0.90209597 -3.371578 -3.0202911
-3.9979041 -3.371578 -2.9942911
-5.9979038 -3.371578 -3.0832911
-8.0979042 -3.371578 -3.1312909
-8.9979038 -3.371578 -3.114291
-9.9979038 -3.371578 -3.1252911
-11.997904 -3.371578 -3.202291
-15.697904 -3.371578 -3.5682909
-18.097904 -3.371578 -3.633291
-19.797903 -3.371578 -3.7442911
-21.097904 -3.371578 -3.784291
-21.797903 -3.371578 -3.778291
-23.797903 -3.371578 -3.7862909
-24.297903 -3.371578 -3.761291
25.602097 -3.4715779 -1.433291
24.502096 -3.4715779 -2.6442909
22.702097 -3.4715779 -3.3822911
19.302095 -3.4715779 -4.6262908
15.402096 -3.4715779 -3.9412911
15.002096 -3.4715779 -3.9732909
14.602096 -3.4715779 -4.0832911
13.502096 -3.4715779 -4.1222911
12.602096 -3.4715779 -4.0782909
11.602096 -3.4715779 -4.031291
8.3020964 -3.4715779 -3.9632909
7.5020962 -3.4715779 -3.8522911
6.1020961 -3.4715779 -3.6252911
5.0020962 -3.4715779 -3.446291
1.802096 -3.4715779 -3.1062911
-3.4979041 -3.4715779 -2.9702909
-5.1979041 -3.4715779 -3.0202911
-6.797904 -3.4715779 -3.0952909
-7.1979041 -3.4715779 -3.1052909
-12.497904 -3.4715779 -3.2132909
-13.097904 -3.4715779 -3.248291
-13.497904 -3.4715779 -3.285291
-15.297904 -3.4715779 -3.5192909
-16.697905 -3.4715779 -3.6052909
-19.097904 -3.4715779 -3.696291
-22.997904 -3.4715779 -3.7562909
30.202097 -3.571578 1.889709
24.902096 -3.571578 -2.307291
23.602097 -3.571578 -2.9182911
22.402096 -3.571578 -3.4352911
21.802095 -3.571578 -3.679291
21.502096 -3.571578 -3.8182909
21.002096 -3.571578 -4.0282912
20.702097 -3.571578 -4.1592908
20.402096 -3.571578 -4.3002911
20.102097 -3.571578 -4.4442911
19.802095 -3.571578 -4.604291
16.602097 -3.571578 -4.1782908
16.002096 -3.571578 -4.0482912
14.202096 -3.571578 -4.1592908
13.202096 -3.571578 -4.090291
9.0020962 -3.571578 -3.9602909
3.8020959 -3.571578 -3.2902911
3.202096 -3.571578 -3.2302909
2.8020959 -3.571578 -3.183291
2.202096 -3.571578 -3.1382909
-1.397904 -3.571578 -2.8562911
-2.297904 -3.571578 -2.883291
-4.797904 -3.571578 -2.9942911
-7.6979041 -3.571578 -3.110291
-11.097904 -3.571578 -3.1472909
-13.997904 -3.571578 -3.343291
-14.597904 -3.571578 -3.4202909
-17.297903 -3.571578 -3.603291
-17.797903 -3.571578 -3.6192911
-20.297903 -3.571578 -3.7172911
-20.697905 -3.571578 -3.742291
-22.297903 -3.571578 -3.7302909
-23.397903 -3.571578 -3.7632909
30.802095 -3.6715779 2.307709
29.002096 -3.6715779 1.639709
24.202097 -3.6715779 -2.5822909
22.902096 -3.6715779 -3.1322911
19.402096 -3.6715779 -4.742291
18.802095 -3.6715779 -4.7912912
18.502096 -3.6715779 -4.7192912
18.102097 -3.6715779 -4.6382909
17.602097 -3.6715779 -4.5342908
17.202097 -3.6715779 -4.4222908
13.802096 -3.6715779 -4.123291
11.902096 -3.6715779 -4.005291
11.002096 -3.6715779 -4.0092912
8.6020956 -3.6715779 -3.9542911
7.9020958 -3.6715779 -3.923291
6.9020958 -3.6715779 -3.7212911
5.4020958 -3.6715779 -3.4432909
0.402096 -3.6715779 -2.929291
-2.797904 -3.6715779 -2.8922911
-9.4979038 -3.6715779 -3.1082909
-16.297903 -3.6715779 -3.6022911
-18.597904 -3.6715779 -3.6552911
-19.397903 -3.6715779 -3.689291
-21.597904 -3.6715779 -3.712291
-24.697905 -3.6715779 -3.7102909
29.602097 -3.7715781 1.780709
26.102097 -3.7715781 -0.990291
25.202097 -3.7715781 -2.0202911
23.802095 -3.7715781 -2.676291
23.302095 -3.7715781 -2.8782909
22.002096 -3.7715781 -3.4412911
21.102097 -3.7715781 -3.827291
20.502096 -3.7715781 -4.0932908
20.202097 -3.7715781 -4.2392912
19.702097 -3.7715781 -4.5042911
16.902096 -3.7715781 -4.347291
15.502096 -3.7715781 -4.1342912
14.702096 -3.7715781 -4.195291
12.302096 -3.7715781 -4.0222912
10.402096 -3.7715781 -3.9482911
10.002096 -3.7715781 -3.9542911
9.3020964 -3.7715781 -3.9432909
6.3020959 -3.7715781 -3.5962911
5.8020959 -3.7715781 -3.4932909
4.5020962 -3.7715781 -3.324291
-0.59790403 -3.7715781 -2.840291
-5.797904 -3.7715781 -3.0302911
-8.1979036 -3.7715781 -3.104291
-9.0979042 -3.7715781 -3.0982909
-9.8979044 -3.7715781 -3.1082909
-10.397904 -3.7715781 -3.1222911
-11.597904 -3.7715781 -3.136291
-12.197904 -3.7715781 -3.1702909
-24.097904 -3.7715781 -3.6972909
22.302095 -3.871578 -3.229291
21.502096 -3.871578 -3.5782909
20.702097 -3.871578 -3.9282911
19.902096 -3.871578 -4.3332911
19.302095 -3.871578 -4.6542912
19.002096 -3.871578 -4.807291
17.902096 -3.871578 -4.5952911
16.602097 -3.871578 -4.3102908
16.102097 -3.871578 -4.2142911
15.002096 -3.871578 -4.1662912
7.6020961 -3.871578 -3.785291
4.9020958 -3.871578 -3.3292911
1.902096 -3.871578 -3.0492909
1.0020961 -3.871578 -2.9812911
-0.097903997 -3.871578 -2.8512909
-3.1979041 -3.871578 -2.8712909
-3.6979041 -3.871578 -2.9042909
-4.3979039 -3.871578 -2.9502909
-5.3979039 -3.871578 -3.0032909
-6.3979039 -3.871578 -3.0492909
-6.8979039 -3.871578 -3.074291
-8.6979036 -3.871578 -3.0862911
-10.797904 -3.871578 -3.1052909
-12.697904 -3.871578 -3.186291
-13.797904 -3.871578 -3.297291
-15.597904 -3.871578 -3.534291
-15.997904 -3.871578 -3.5762911
-17.097904 -3.871578 -3.580291
-18.297903 -3.871578 -3.6182909
-19.097904 -3.871578 -3.663291
-19.997904 -3.871578 -3.6902909
-21.097904 -3.871578 -3.692291
-22.897903 -3.871578 -3.7012911
-24.997904 -3.871578 -3.666291
24.802095 -3.9715779 -2.090291
24.402096 -3.9715779 -2.265291
23.002096 -3.9715779 -2.8652911
22.602097 -3.9715779 -3.0322909
21.202097 -3.9715779 -3.6192911
20.902096 -3.9715779 -3.7572911
20.302095 -3.9715779 -4.0422912
19.502096 -3.9715779 -4.4872909
18.402096 -3.9715779 -4.682291
17.502096 -3.9715779 -4.5272908
17.202097 -3.9715779 -4.4502912
14.402096 -3.9715779 -4.169291
13.902096 -3.9715779 -4.0992908
13.302096 -3.9715779 -4.0782909
12.902096 -3.9715779 -4.0552912
11.502096 -3.9715779 -3.9712911
9.6020956 -3.9715779 -3.9182911
8.9020958 -3.9715779 -3.9282911
8.4020958 -3.9715779 -3.9242909
7.1020961 -3.9715779 -3.659291
6.6020961 -3.9715779 -3.6022911
4.1020961 -3.9715779 -3.2432909
3.702096 -3.9715779 -3.215291
2.5020959 -3.9715779 -3.077291
-1.9979039 -3.9715779 -2.7992909
-2.4979041 -3.9715779 -2.8032911
-4.9979038 -3.9715779 -2.9702909
-14.297904 -3.9715779 -3.354291
-14.997904 -3.9715779 -3.445291
-20.697905 -3.9715779 -3.679291
-22.497904 -3.9715779 -3.662291
-23.397903 -3.9715779 -3.6702909
-23.797903 -3.9715779 -3.6672909
-24.497904 -3.9715779 -3.672291
29.702097 -4.071578 1.305709
24.002096 -4.071578 -2.3582909
23.302095 -4.071578 -2.656291
20.002096 -4.071578 -4.1292911
19.702097 -4.071578 -4.308291
19.002096 -4.071578 -4.6272912
18.702097 -4.071578 -4.709291
16.902096 -4.071578 -4.3892908
11.902096 -4.071578 -3.9772911
10.602096 -4.071578 -3.9382911
8.0020962 -4.071578 -3.8682909
5.6020961 -4.071578 -3.4082911
3.1020961 -4.071578 -3.137291
-11.197904 -4.071578 -3.093291
-13.197904 -4.071578 -3.218291
-16.597904 -4.071578 -3.5392909
-17.397903 -4.071578 -3.5852909
-17.797903 -4.071578 -3.5962911
-19.497904 -4.071578 -3.659291
-20.297903 -4.071578 -3.663291
-21.597904 -4.071578 -3.6482911
-22.097904 -4.071578 -3.6552911
31.302095 -4.1715779 2.685709
30.502096 -4.1715779 2.122709
29.102097 -4.1715779 1.249709
25.202097 -4.1715779 -1.753291
22.102097 -4.1715779 -3.0982909
21.702097 -4.1715779 -3.2692909
21.402096 -4.1715779 -3.386291
20.402096 -4.1715779 -3.8452909
19.302095 -4.1715779 -4.4142909
18.102097 -4.1715779 -4.6072912
15.802096 -4.1715779 -4.2502909
12.402096 -4.1715779 -3.979291
11.102096 -4.1715779 -3.9282911
10.202096 -4.1715779 -3.9022911
6.202096 -4.1715779 -3.4932909
5.202096 -4.1715779 -3.3132911
4.6020961 -4.1715779 -3.2472911
0.502096 -4.1715779 -2.8722911
-1.097904 -4.1715779 -2.7672911
-3.9979041 -4.1715779 -2.887291
-6.0979042 -4.1715779 -3.005291
-7.1979041 -4.1715779 -3.0552909
-7.6979041 -4.1715779 -3.0662911
-8.3979044 -4.1715779 -3.0752909
-9.797904 -4.1715779 -3.071291
-11.997904 -4.1715779 -3.127291
-15.397904 -4.1715779 -3.4862909
-18.597904 -4.1715779 -3.6122911
30.902096 -4.2715778 2.4267089
25.802095 -4.2715778 -1.378291
23.602097 -4.2715778 -2.370291
22.802095 -4.2715778 -2.7072909
22.402096 -4.2715778 -2.883291
21.102097 -4.2715778 -3.4642911
20.802095 -4.2715778 -3.574291
20.102097 -4.2715778 -3.955291
19.802095 -4.2715778 -4.0942912
19.502096 -4.2715778 -4.2262912
19.002096 -4.2715778 -4.4222908
18.402096 -4.2715778 -4.6252909
17.802095 -4.2715778 -4.5232911
17.402096 -4.2715778 -4.4712911
16.502096 -4.2715778 -4.321291
15.302096 -4.2715778 -4.2312908
14.902096 -4.2715778 -4.1992912
13.202096 -4.2715778 -4.038291
12.802096 -4.2715778 -4.0162911
7.4020958 -4.2715778 -3.6522911
2.202096 -4.2715778 -3.0102911
-0.497904 -4.2715778 -2.7732911
-3.3979039 -4.2715778 -2.8122909
-5.6979041 -4.2715778 -2.9672911
-6.797904 -4.2715778 -3.0172911
-13.697904 -4.2715778 -3.2402911
-14.097904 -4.2715778 -3.285291
-14.797904 -4.2715778 -3.4022911
-15.997904 -4.2715778 -3.535291
-19.197905 -4.2715778 -3.6282909
-19.897903 -4.2715778 -3.636291
-20.897903 -4.2715778 -3.614291
-21.297903 -4.2715778 -3.6192911
-22.897903 -4.2715778 -3.620291
-24.297903 -4.2715778 -3.633291
-24.697905 -4.2715778 -3.6252911
26.302095 -4.3715782 -1.012291
24.102097 -4.3715782 -2.0762911
19.202097 -4.3715782 -4.248291
18.702097 -4.3715782 -4.472291
17.102097 -4.3715782 -4.4242911
16.802095 -4.3715782 -4.386291
14.602096 -4.3715782 -4.1702909
10.802096 -4.3715782 -3.899291
9.8020964 -4.3715782 -3.889291
9.3020964 -4.3715782 -3.8842909
8.9020958 -4.3715782 -3.8742909
8.5020962 -4.3715782 -3.8842909
7.702096 -4.3715782 -3.7822909
7.0020962 -4.3715782 -3.5562911
3.902096 -4.3715782 -3.1352911
2.8020959 -4.3715782 -3.067291
1.602096 -4.3715782 -2.9482911
0.90209597 -4.3715782 -2.883291
-1.4979039 -4.3715782 -2.7402911
-2.097904 -4.3715782 -2.729291
-2.8979039 -4.3715782 -2.765291
-4.797904 -4.3715782 -2.9182911
-8.797904 -4.3715782 -3.0562911
-9.3979044 -4.3715782 -3.070291
-10.497904 -4.3715782 -3.067291
-12.597904 -4.3715782 -3.1322911
-16.397903 -4.3715782 -3.5062909
-16.997904 -4.3715782 -3.5532911
-17.597904 -4.3715782 -3.5692911
-18.097904 -4.3715782 -3.5762911
-20.497904 -4.3715782 -3.600291
-22.297903 -4.3715782 -3.6062911
-23.597904 -4.3715782 -3.603291
28.602097 -4.4715781 0.99870902
24.502096 -4.4715781 -1.809291
21.602097 -4.4715781 -3.0852909
20.302095 -4.4715781 -3.6902909
19.902096 -4.4715781 -3.8882909
19.602097 -4.4715781 -4.0072908
18.902096 -4.4715781 -4.2932911
18.402096 -4.4715781 -4.4432912
18.102097 -4.4715781 -4.5022912
16.202097 -4.4715781 -4.3002911
14.102096 -4.4715781 -4.1112909
13.602096 -4.4715781 -4.0592909
11.702096 -4.4715781 -3.919291
8.1020956 -4.4715781 -3.8232911
6.6020961 -4.4715781 -3.5002911
6.0020962 -4.4715781 -3.4022911
4.9020958 -4.4715781 -3.205291
3.5020959 -4.4715781 -3.0892911
0.0020959999 -4.4715781 -2.7772911
-4.297904 -4.4715781 -2.8652911
-10.097904 -4.4715781 -3.0652909
-10.997904 -4.4715781 -3.074291
-13.197904 -4.4715781 -3.1682911
-15.197904 -4.4715781 -3.432291
-15.697904 -4.4715781 -3.495291
-21.797903 -4.4715781 -3.5852909
30.202097 -4.571578 1.7637089
25.002096 -4.571578 -1.518291
23.702097 -4.571578 -2.094291
23.202097 -4.571578 -2.3092909
22.802095 -4.571578 -2.472291
22.402096 -4.571578 -2.6522911
21.902096 -4.571578 -2.873291
21.202097 -4.571578 -3.1982911
20.702097 -4.571578 -3.399291
19.302095 -4.571578 -4.011291
17.402096 -4.571578 -4.4372911
15.802096 -4.571578 -4.2652912
12.302096 -4.571578 -3.949291
10.102096 -4.571578 -3.8512909
5.3020959 -4.571578 -3.251291
-3.797904 -4.571578 -2.785291
-6.1979041 -4.571578 -2.9502909
-7.4979038 -4.571578 -3.028291
-11.597904 -4.571578 -3.074291
-12.197904 -4.571578 -3.0922911
-14.397904 -4.571578 -3.3132911
-18.697905 -4.571578 -3.5532911
-20.097904 -4.571578 -3.591291
-23.297903 -4.571578 -3.567291
31.302095 -4.6715779 2.6747091
30.702097 -4.6715779 2.2337091
27.202097 -4.6715779 -0.18529101
19.702097 -4.6715779 -3.7992909
18.602097 -4.6715779 -4.3482909
17.102097 -4.6715779 -4.3972912
16.502096 -4.6715779 -4.3282909
14.802096 -4.6715779 -4.1592908
12.802096 -4.6715779 -3.978291
9.5020962 -4.6715779 -3.834291
2.402096 -4.6715779 -2.945291
0.502096 -4.6715779 -2.794291
-2.4979041 -4.6715779 -2.6982911
-8.1979036 -4.6715779 -3.0222909
-13.897904 -4.6715779 -3.232291
-15.997904 -4.6715779 -3.4802909
-16.597904 -4.6715779 -3.492291
-18.297903 -4.6715779 -3.5522909
-19.197905 -4.6715779 -3.5502911
-20.697905 -4.6715779 -3.5362909
-21.197905 -4.6715779 -3.534291
-23.997904 -4.6715779 -3.5782909
25.902096 -4.7715778 -0.83629102
24.002096 -4.7715778 -1.8002909
21.402096 -4.7715778 -2.949291
20.302095 -4.7715778 -3.4302909
19.902096 -4.7715778 -3.6112909
18.202097 -4.7715778 -4.4212909
17.702097 -4.7715778 -4.4362912
15.102096 -4.7715778 -4.1882911
11.302096 -4.7715778 -3.877291
10.402096 -4.7715778 -3.8492911
8.8020964 -4.7715778 -3.8182909
8.4020958 -4.7715778 -3.8182909
6.9020958 -4.7715778 -3.462291
4.5020962 -4.7715778 -3.1022911
3.902096 -4.7715778 -3.0632911
2.902096 -4.7715778 -2.9842911
1.802096 -4.7715778 -2.889291
-0.89790398 -4.7715778 -2.7002909
-2.8979039 -4.7715778 -2.706291
-5.3979039 -4.7715778 -2.887291
-6.6979041 -4.7715778 -2.9582911
-7.0979042 -4.7715778 -2.9832909
-8.6979036 -4.7715778 -3.0202911
-9.6979036 -4.7715778 -3.0332911
-12.897904 -4.7715778 -3.116291
-13.497904 -4.7715778 -3.1712911
-14.797904 -4.7715778 -3.3422911
-17.097904 -4.7715778 -3.511291
-19.597904 -4.7715778 -3.531291
-22.597904 -4.7715778 -3.5292909
24.502096 -4.8715782 -1.4712909
22.202097 -4.8715782 -2.502291
21.002096 -4.8715782 -3.0422909
20.602097 -4.8715782 -3.199291
19.002096 -4.8715782 -3.9832909
18.702097 -4.8715782 -4.1532912
18.402096 -4.8715782 -4.2982912
17.402096 -4.8715782 -4.4222908
16.802095 -4.8715782 -4.347291
15.902096 -4.8715782 -4.2492909
15.402096 -4.8715782 -4.1942911
13.502096 -4.8715782 -4.0102911
13.102096 -4.8715782 -3.9742911
12.502096 -4.8715782 -3.9432909
12.002096 -4.8715782 -3.910291
9.8020964 -4.8715782 -3.8222909
7.8020959 -4.8715782 -3.7232909
7.4020958 -4.8715782 -3.6122911
6.3020959 -4.8715782 -3.3822911
-0.39790401 -4.8715782 -2.6842909
-1.697904 -4.8715782 -2.6542909
-3.3979039 -4.8715782 -2.7002909
-4.1979041 -4.8715782 -2.761291
-4.6979041 -4.8715782 -2.8052909
-5.8979039 -4.8715782 -2.899291
-10.597904 -4.8715782 -3.015291
-15.397904 -4.8715782 -3.4152911
-17.797903 -4.8715782 -3.5222909
-18.897903 -4.8715782 -3.5002911
-19.997904 -4.8715782 -3.501291
-21.697905 -4.8715782 -3.515291
-22.197905 -4.8715782 -3.514291
-23.597904 -4.8715782 -3.5422909
-24.397903 -4.8715782 -3.557291
25.102097 -4.9715781 -1.0832911
23.102097 -4.9715781 -2.0222909
22.602097 -4.9715781 -2.242291
21.702097 -4.9715781 -2.663291
19.602097 -4.9715781 -3.581291
19.302095 -4.9715781 -3.745291
17.102097 -4.9715781 -4.3592911
16.402096 -4.9715781 -4.2952909
14.602096 -4.9715781 -4.1072912
11.602096 -4.9715781 -3.8722911
10.702096 -4.9715781 -3.8362911
5.5020962 -4.9715781 -3.235291
5.1020961 -4.9715781 -3.1542909
3.3020959 -4.9715781 -2.9992909
1.202096 -4.9715781 -2.7992909
-11.097904 -4.9715781 -3.0202911
-11.897904 -4.9715781 -3.0392909
-16.797903 -4.9715781 -3.465291
-18.497904 -4.9715781 -3.4962909
-22.997904 -4.9715781 -3.514291
23.502096 -5.071578 -1.7592911
20.302095 -5.071578 -3.1702909
20.002096 -5.071578 -3.3132911
18.802095 -5.071578 -3.9152911
18.502096 -5.071578 -4.0782909
18.202097 -5.071578 -4.2502909
14.002096 -5.071578 -4.0432911
10.202096 -5.071578 -3.8102911
9.3020964 -5.071578 -3.778291
8.202096 -5.071578 -3.7492909
5.9020958 -5.071578 -3.275291
-5.0979042 -5.071578 -2.8262911
-7.797904 -5.071578 -2.978291
-9.0979042 -5.071578 -2.989291
-9.9979038 -5.071578 -2.9992909
-12.397904 -5.071578 -3.047291
-13.997904 -5.071578 -3.186291
-17.497904 -5.071578 -3.4702909
-18.097904 -5.071578 -3.489291
-20.497904 -5.071578 -3.452291
-23.997904 -5.071578 -3.511291
29.602097 -5.1715779 1.895709
24.002096 -5.1715779 -1.456291
21.402096 -5.1715779 -2.617291
21.002096 -5.1715779 -2.8032911
20.602097 -5.1715779 -2.9502909
19.702097 -5.1715779 -3.3522911
19.002096 -5.1715779 -3.716291
17.802095 -5.1715779 -4.327291
16.702097 -5.1715779 -4.3042908
12.902096 -5.1715779 -3.946291
12.202096 -5.1715779 -3.896291
11.202096 -5.1715779 -3.8252909
7.1020961 -5.1715779 -3.475291
6.702096 -5.1715779 -3.3792911
4.5020962 -5.1715779 -3.0302911
4.0020962 -5.1715779 -2.998291
2.6020961 -5.1715779 -2.893291
0.402096 -5.1715779 -2.7202909
-2.3979039 -5.1715779 -2.626291
-7.1979041 -5.1715779 -2.926291
-12.797904 -5.1715779 -3.054291
-13.597904 -5.1715779 -3.1242909
-14.597904 -5.1715779 -3.264291
-15.897904 -5.1715779 -3.4012909
-16.397903 -5.1715779 -3.4252911
-20.897903 -5.1715779 -3.4512911
-22.697905 -5.1715779 -3.4672911
-23.397903 -5.1715779 -3.485291
-24.597904 -5.1715779 -3.4802909
31.102097 -5.2715778 3.054709
22.202097 -5.2715778 -2.1682911
21.702097 -5.2715778 -2.4022911
19.402096 -5.2715778 -3.4142909
18.302095 -5.2715778 -4.0202909
18.002096 -5.2715778 -4.176291
17.502096 -5.2715778 -4.3372908
17.102097 -5.2715778 -4.321291
16.202097 -5.2715778 -4.2432909
15.502096 -5.2715778 -4.1722908
15.002096 -5.2715778 -4.1332908
13.502096 -5.2715778 -3.9672911
10.502096 -5.2715778 -3.7802911
9.8020964 -5.2715778 -3.7492909
8.9020958 -5.2715778 -3.7232909
7.9020958 -5.2715778 -3.7102909
7.5020962 -5.2715778 -3.6452911
6.3020959 -5.2715778 -3.3122909
1.802096 -5.2715778 -2.807291
-0.997904 -5.2715778 -2.6212909
-3.8979039 -5.2715778 -2.6542909
-6.1979041 -5.2715778 -2.864291
-8.297904 -5.2715778 -2.9642911
-15.197904 -5.2715778 -3.327291
-17.197905 -5.2715778 -3.445291
-18.997904 -5.2715778 -3.4212911
-19.497904 -5.2715778 -3.4372909
-21.297903 -5.2715778 -3.452291
30.102097 -5.3715782 2.4397089
27.502096 -5.3715782 0.68470901
26.002096 -5.3715782 -0.227291
24.502096 -5.3715782 -1.035291
22.602097 -5.3715782 -1.922291
20.302095 -5.3715782 -2.923291
19.902096 -5.3715782 -3.097291
19.102097 -5.3715782 -3.4962909
18.502096 -5.3715782 -3.821291
15.802096 -5.3715782 -4.189291
14.702096 -5.3715782 -4.077291
14.302096 -5.3715782 -4.051291
13.902096 -5.3715782 -3.988291
12.602096 -5.3715782 -3.893291
11.802096 -5.3715782 -3.8352909
8.5020962 -5.3715782 -3.7012911
5.6020961 -5.3715782 -3.196291
0.90209597 -5.3715782 -2.7372911
-1.797904 -5.3715782 -2.594291
-3.297904 -5.3715782 -2.6282909
-4.6979041 -5.3715782 -2.7072909
-8.797904 -5.3715782 -2.9602909
-11.497904 -5.3715782 -2.9702909
-13.197904 -5.3715782 -3.0592909
-17.697905 -5.3715782 -3.442291
-18.497904 -5.3715782 -3.409291
-22.297903 -5.3715782 -3.4352911
30.602097 -5.4715781 2.889709
20.602097 -5.4715781 -2.709291
19.502096 -5.4715781 -3.1932909
18.702097 -5.4715781 -3.623291
18.002096 -5.4715781 -3.995291
17.602097 -5.4715781 -4.1972909
17.302095 -5.4715781 -4.3172908
16.502096 -5.4715781 -4.2342911
13.202096 -5.4715781 -3.929291
10.802096 -5.4715781 -3.7772911
10.102096 -5.4715781 -3.7502911
9.202096 -5.4715781 -3.699291
5.1020961 -5.4715781 -3.1252911
3.0020959 -5.4715781 -2.8882909
0.0020959999 -5.4715781 -2.6672909
-5.5979042 -5.4715781 -2.778291
-6.5979042 -5.4715781 -2.864291
-9.297904 -5.4715781 -2.9402909
-10.697904 -5.4715781 -2.9602909
-20.097904 -5.4715781 -3.393291
-20.497904 -5.4715781 -3.3972909
-21.797903 -5.4715781 -3.4202909
-23.197905 -5.4715781 -3.4342909
-23.697905 -5.4715781 -3.446291
-24.097904 -5.4715781 -3.4432909
25.002096 -5.571578 -0.59829098
23.402096 -5.571578 -1.388291
21.802095 -5.571578 -2.1122911
21.402096 -5.571578 -2.2952909
21.002096 -5.571578 -2.469291
19.202097 -5.571578 -3.2632909
18.202097 -5.571578 -3.7902911
12.202096 -5.571578 -3.8582909
8.1020956 -5.571578 -3.6512909
7.202096 -5.571578 -3.5762911
