# .PCD v0.7 - Point Cloud Data file format
VERSION 0.7
FIELDS x y z
SIZE 4 4 4
TYPE F F F
COUNT 1 1 1
WIDTH 1544
HEIGHT 1
VIEWPOINT 0 0 0 1 0 0 0
POINTS 1544
DATA ascii
-2.7347541 -21.475794 3.508188
-1.034754 -21.475794 3.525188
-0.53475398 -21.475794 3.5131879
-0.33475399 -21.475794 3.5031879
0.865246 -21.475794 3.4701879
1.065246 -21.475794 3.456188
1.265246 -21.475794 3.4631879
1.565246 -21.475794 3.4281881
1.765246 -21.475794 3.436188
1.965246 -21.475794 3.423188
2.665246 -21.475794 3.3951881
2.965246 -21.475794 3.3811879
3.165246 -21.475794 3.3681879
3.7652459 -21.475794 3.3561881
3.965246 -21.475794 3.337188
4.3652458 -21.475794 3.3161881
4.5652461 -21.475794 3.3061881
5.5652461 -21.475794 3.258188
6.3652458 -21.475794 3.2141881
6.8652458 -21.475794 3.186188
7.3652458 -21.475794 3.163188
8.2652464 -21.475794 3.1191881
8.8652458 -21.475794 3.0631881
9.9652462 -21.475794 2.989188
10.965246 -21.475794 2.8921881
12.065246 -21.475794 2.801188
13.065246 -21.475794 2.6781881
13.365246 -21.475794 2.6391881
14.465246 -21.475794 2.485188
14.865246 -21.475794 2.4341879
15.165246 -21.475794 2.3881879
15.465246 -21.475794 2.347188
15.965246 -21.475794 2.268188
16.265245 -21.475794 2.229188
17.065247 -21.475794 2.117188
17.665245 -21.475794 2.0071881
-20.134754 -21.575794 2.281188
-20.034754 -21.575794 2.610188
-19.234755 -21.575794 2.5141881
-17.834755 -21.575794 2.265188
-16.634754 -21.575794 2.2461879
-15.534754 -21.575794 2.146188
-13.034754 -21.575794 1.875188
-11.034754 -21.575794 1.794188
-8.834754 -21.575794 2.0271881
-8.4347544 -21.575794 2.1151879
-7.5347538 -21.575794 2.406188
-7.1347542 -21.575794 2.547188
-6.4347539 -21.575794 2.778188
-6.2347541 -21.575794 2.877188
-6.0347538 -21.575794 2.936188
-5.834754 -21.575794 2.992188
-5.6347542 -21.575794 3.0721879
-4.1347542 -21.575794 3.410188
-3.9347539 -21.575794 3.442188
-3.7347541 -21.575794 3.465188
-3.534754 -21.575794 3.479188
-2.534754 -21.575794 3.5231881
-1.934754 -21.575794 3.5291879
-1.734754 -21.575794 3.5261879
0.16524599 -21.575794 3.492188
0.365246 -21.575794 3.475188
2.165246 -21.575794 3.4141879
2.3652461 -21.575794 3.4021881
3.465246 -21.575794 3.357188
4.7652459 -21.575794 3.298188
5.165246 -21.575794 3.2791879
5.8652458 -21.575794 3.2441881
6.165246 -21.575794 3.225188
7.165246 -21.575794 3.169188
9.0652456 -21.575794 3.047188
10.165246 -21.575794 2.959188
11.665246 -21.575794 2.8231881
12.565246 -21.575794 2.728188
13.665246 -21.575794 2.590188
-18.834755 -21.675795 2.4511881
-17.434753 -21.675795 2.2901881
-17.134754 -21.675795 2.2631879
-15.834754 -21.675795 2.189188
-15.034754 -21.675795 2.1511879
-14.734754 -21.675795 2.1571879
-13.834754 -21.675795 2.0161879
-12.634754 -21.675795 1.839188
-11.334754 -21.675795 1.794188
-10.034754 -21.675795 1.863188
-9.334754 -21.675795 1.941188
-6.834754 -21.675795 2.6671879
-5.1347542 -21.675795 3.2071879
-4.9347539 -21.675795 3.2591879
-4.6347542 -21.675795 3.3361881
-3.2347541 -21.675795 3.512188
-3.034754 -21.675795 3.518188
-2.7347541 -21.675795 3.528188
-2.2347541 -21.675795 3.534188
-1.534754 -21.675795 3.5421879
-1.334754 -21.675795 3.544188
-1.1347539 -21.675795 3.535188
-0.83475399 -21.675795 3.531188
-0.634754 -21.675795 3.5231881
-0.134754 -21.675795 3.5071881
0.66524601 -21.675795 3.468188
0.96524602 -21.675795 3.468188
1.165246 -21.675795 3.459188
1.465246 -21.675795 3.4541881
1.665246 -21.675795 3.4531879
1.8652461 -21.675795 3.436188
2.665246 -21.675795 3.406188
2.8652461 -21.675795 3.393188
3.2652459 -21.675795 3.367188
3.965246 -21.675795 3.340188
4.165246 -21.675795 3.334188
4.3652458 -21.675795 3.3101881
4.5652461 -21.675795 3.3031881
5.4652462 -21.675795 3.251188
6.665246 -21.675795 3.182188
6.9652462 -21.675795 3.179188
7.7652459 -21.675795 3.1281879
8.0652456 -21.675795 3.1111879
8.5652456 -21.675795 3.081188
9.5652456 -21.675795 3.0141881
9.8652458 -21.675795 2.9811881
10.365246 -21.675795 2.945188
10.765246 -21.675795 2.8971879
11.165246 -21.675795 2.870188
12.865246 -21.675795 2.6781881
14.265246 -21.675795 2.5031879
15.765246 -21.675795 2.3091879
17.365246 -21.675795 2.0521879
-20.034754 -21.775793 2.3951881
-19.834755 -21.775793 2.689188
-19.434753 -21.775793 2.591188
-17.734755 -21.775793 2.3221879
-16.834755 -21.775793 2.2571881
-16.234755 -21.775793 2.2801881
-14.234754 -21.775793 2.0991881
-13.334754 -21.775793 1.954188
-11.934754 -21.775793 1.8101881
-9.6347542 -21.775793 1.914188
-8.1347542 -21.775793 2.2241881
-7.334754 -21.775793 2.4611881
-6.5347538 -21.775793 2.761188
-6.2347541 -21.775793 2.8481879
-5.9347539 -21.775793 2.9671879
-5.7347541 -21.775793 3.035188
-5.5347538 -21.775793 3.0961881
-5.334754 -21.775793 3.166188
-4.334754 -21.775793 3.3811879
-4.1347542 -21.775793 3.419188
-3.9347539 -21.775793 3.443188
-3.534754 -21.775793 3.491188
-1.934754 -21.775793 3.5591879
-0.33475399 -21.775793 3.515188
0.16524599 -21.775793 3.498188
0.365246 -21.775793 3.4961879
2.0652461 -21.775793 3.423188
2.2652459 -21.775793 3.419188
3.0652461 -21.775793 3.393188
3.465246 -21.775793 3.364188
3.665246 -21.775793 3.347188
4.8652458 -21.775793 3.281188
5.165246 -21.775793 3.268188
5.7652459 -21.775793 3.2311881
6.0652461 -21.775793 3.2211881
6.4652462 -21.775793 3.1981881
7.2652459 -21.775793 3.1521881
7.5652461 -21.775793 3.1321881
8.2652464 -21.775793 3.1021881
8.7652464 -21.775793 3.0651879
9.3652458 -21.775793 3.0301881
10.565246 -21.775793 2.9251881
11.865246 -21.775793 2.7831881
12.165246 -21.775793 2.765188
13.865246 -21.775793 2.547188
14.565246 -21.775793 2.4671879
16.065247 -21.775793 2.252188
16.365246 -21.775793 2.2131879
16.665245 -21.775793 2.163188
17.765245 -21.775793 1.943188
-19.034754 -21.875793 2.5331881
-18.234755 -21.875793 2.4121881
-17.134754 -21.875793 2.3481879
-10.734754 -21.875793 1.827188
-8.834754 -21.875793 2.0591879
-8.4347544 -21.875793 2.1341879
-7.9347539 -21.875793 2.275188
-7.6347542 -21.875793 2.373188
-7.1347542 -21.875793 2.557188
-6.7347541 -21.875793 2.689188
-5.1347542 -21.875793 3.2201879
-4.6347542 -21.875793 3.340188
-3.7347541 -21.875793 3.472188
-2.534754 -21.875793 3.547188
-2.1347539 -21.875793 3.5521879
-1.6347539 -21.875793 3.5501881
-1.334754 -21.875793 3.5521879
-1.1347539 -21.875793 3.5421879
-0.93475401 -21.875793 3.5291879
-0.53475398 -21.875793 3.534188
-0.034754001 -21.875793 3.5171881
0.66524601 -21.875793 3.4861879
0.865246 -21.875793 3.4811881
1.465246 -21.875793 3.462188
1.665246 -21.875793 3.4611881
1.8652461 -21.875793 3.443188
2.5652461 -21.875793 3.4081881
3.2652459 -21.875793 3.3681879
3.8652461 -21.875793 3.3461881
4.0652461 -21.875793 3.343188
4.2652459 -21.875793 3.3261881
4.4652462 -21.875793 3.3131881
5.3652458 -21.875793 3.242188
6.2652459 -21.875793 3.2131879
6.8652458 -21.875793 3.1711881
7.8652458 -21.875793 3.1251881
8.9652462 -21.875793 3.0561881
9.7652464 -21.875793 2.9761879
10.065246 -21.875793 2.959188
11.565246 -21.875793 2.8101881
12.465246 -21.875793 2.7111881
14.965246 -21.875793 2.3971879
15.365246 -21.875793 2.3611879
16.965246 -21.875793 2.1081879
-19.634754 -21.975794 2.6681881
-18.634754 -21.975794 2.478188
-16.434753 -21.975794 2.2731881
-15.534754 -21.975794 2.1911881
-15.234754 -21.975794 2.186188
-14.934754 -21.975794 2.1811881
-14.434754 -21.975794 2.1711881
-13.534754 -21.975794 2.025188
-12.334754 -21.975794 1.867188
-11.634754 -21.975794 1.827188
-11.134754 -21.975794 1.832188
-6.4347539 -21.975794 2.804188
-6.2347541 -21.975794 2.8721881
-5.9347539 -21.975794 2.9811881
-5.7347541 -21.975794 3.0761881
-5.5347538 -21.975794 3.110188
-5.334754 -21.975794 3.172188
-4.834754 -21.975794 3.307188
-4.1347542 -21.975794 3.439188
-3.4347539 -21.975794 3.5061879
-3.2347541 -21.975794 3.5201881
-3.034754 -21.975794 3.545188
-2.834754 -21.975794 3.545188
-2.334754 -21.975794 3.5591879
-0.73475403 -21.975794 3.544188
0.46524599 -21.975794 3.5001881
1.065246 -21.975794 3.479188
1.265246 -21.975794 3.4761879
2.3652461 -21.975794 3.4151881
2.8652461 -21.975794 3.3951881
3.465246 -21.975794 3.376188
3.665246 -21.975794 3.3561881
4.665246 -21.975794 3.297188
5.0652461 -21.975794 3.2791879
5.5652461 -21.975794 3.2271881
5.9652462 -21.975794 3.2201879
6.665246 -21.975794 3.1811881
7.3652458 -21.975794 3.133188
8.0652456 -21.975794 3.097188
8.5652456 -21.975794 3.0761881
9.2652464 -21.975794 3.008188
11.165246 -21.975794 2.8511879
12.765246 -21.975794 2.672188
13.065246 -21.975794 2.646188
13.365246 -21.975794 2.600188
14.065246 -21.975794 2.5171881
15.665246 -21.975794 2.2921879
-20.134754 -22.075794 2.2831881
-19.834755 -22.075794 2.7171879
-19.334755 -22.075794 2.6211879
-19.134754 -22.075794 2.623188
-17.834755 -22.075794 2.3511879
-17.534754 -22.075794 2.3421879
-17.234755 -22.075794 2.340188
-16.834755 -22.075794 2.3061881
-15.934754 -22.075794 2.2701881
-14.134754 -22.075794 2.140188
-10.234754 -22.075794 1.9071881
-9.9347544 -22.075794 1.919188
-9.4347544 -22.075794 1.982188
-9.0347538 -22.075794 2.025188
-8.1347542 -22.075794 2.2461879
-7.7347541 -22.075794 2.3621881
-7.4347539 -22.075794 2.452188
-7.0347538 -22.075794 2.6011879
-6.7347541 -22.075794 2.7041881
-5.0347538 -22.075794 3.2401879
-4.4347539 -22.075794 3.386188
-3.834754 -22.075794 3.4861879
-2.534754 -22.075794 3.5551879
-2.1347539 -22.075794 3.5661881
-1.934754 -22.075794 3.558188
-1.734754 -22.075794 3.568188
-1.434754 -22.075794 3.5551879
-1.234754 -22.075794 3.561188
-1.034754 -22.075794 3.5521879
-0.53475398 -22.075794 3.535188
-0.234754 -22.075794 3.528188
-0.034754001 -22.075794 3.5231881
0.265246 -22.075794 3.511188
0.66524601 -22.075794 3.495188
0.865246 -22.075794 3.4931879
1.565246 -22.075794 3.462188
1.8652461 -22.075794 3.4501879
2.165246 -22.075794 3.442188
3.0652461 -22.075794 3.3891881
3.2652459 -22.075794 3.3711879
3.8652461 -22.075794 3.3521881
4.165246 -22.075794 3.337188
4.8652458 -22.075794 3.2861879
6.4652462 -22.075794 3.2011881
7.0652461 -22.075794 3.1521881
7.665246 -22.075794 3.127188
8.2652464 -22.075794 3.0861881
8.7652464 -22.075794 3.0601881
9.0652456 -22.075794 3.041188
9.5652456 -22.075794 2.9941881
10.365246 -22.075794 2.926188
10.865246 -22.075794 2.886188
11.965246 -22.075794 2.7641881
12.265246 -22.075794 2.729188
14.565246 -22.075794 2.4281881
15.165246 -22.075794 2.3621881
16.265245 -22.075794 2.1971879
17.465246 -22.075794 2.005188
17.765245 -22.075794 1.931188
-18.834755 -22.175795 2.561188
-18.234755 -22.175795 2.4831879
-13.834754 -22.175795 2.0991881
-13.134754 -22.175795 1.988188
-12.734754 -22.175795 1.921188
-11.934754 -22.175795 1.847188
-10.534754 -22.175795 1.865188
-8.7347536 -22.175795 2.090188
-8.334754 -22.175795 2.182188
-7.9347539 -22.175795 2.291188
-6.334754 -22.175795 2.854188
-6.1347542 -22.175795 2.9051881
-5.9347539 -22.175795 2.9871881
-5.7347541 -22.175795 3.0551879
-5.5347538 -22.175795 3.110188
-5.2347541 -22.175795 3.205188
-4.834754 -22.175795 3.3121879
-4.6347542 -22.175795 3.353188
-4.0347538 -22.175795 3.443188
-3.6347539 -22.175795 3.491188
-3.4347539 -22.175795 3.515188
-3.2347541 -22.175795 3.5331881
-3.034754 -22.175795 3.544188
-0.73475403 -22.175795 3.558188
0.46524599 -22.175795 3.512188
1.165246 -22.175795 3.4811881
1.3652461 -22.175795 3.4671879
2.3652461 -22.175795 3.4251881
2.665246 -22.175795 3.4121881
2.8652461 -22.175795 3.3981881
3.465246 -22.175795 3.364188
3.665246 -22.175795 3.3621881
4.3652458 -22.175795 3.318188
4.5652461 -22.175795 3.298188
5.3652458 -22.175795 3.2461879
5.665246 -22.175795 3.242188
6.165246 -22.175795 3.205188
6.8652458 -22.175795 3.1611879
7.2652459 -22.175795 3.1411879
7.9652462 -22.175795 3.1021881
13.565246 -22.175795 2.558188
14.865246 -22.175795 2.3881879
15.965246 -22.175795 2.239188
-19.934753 -22.275793 2.534188
-19.434753 -22.275793 2.693188
-19.134754 -22.275793 2.649188
-16.334755 -22.275793 2.317188
-15.634754 -22.275793 2.2541881
-15.034754 -22.275793 2.2131879
-14.534754 -22.275793 2.1911881
-11.334754 -22.275793 1.866188
-10.934754 -22.275793 1.866188
-7.2347541 -22.275793 2.5301881
-6.6347542 -22.275793 2.7431879
-4.2347541 -22.275793 3.426188
-2.834754 -22.275793 3.568188
-2.6347539 -22.275793 3.5721879
-2.2347541 -22.275793 3.5631881
-1.6347539 -22.275793 3.5731881
-1.234754 -22.275793 3.564188
-0.93475401 -22.275793 3.5631881
-0.134754 -22.275793 3.535188
1.765246 -22.275793 3.4501879
2.0652461 -22.275793 3.442188
3.0652461 -22.275793 3.396188
3.2652459 -22.275793 3.380188
3.8652461 -22.275793 3.353188
4.0652461 -22.275793 3.334188
4.9652462 -22.275793 3.2801881
5.9652462 -22.275793 3.212188
6.665246 -22.275793 3.1571879
7.7652459 -22.275793 3.100188
8.3652458 -22.275793 3.067188
8.9652462 -22.275793 3.0271881
9.8652458 -22.275793 2.9581881
10.265246 -22.275793 2.9211881
10.565246 -22.275793 2.883188
11.165246 -22.275793 2.8281879
11.465246 -22.275793 2.7831881
13.265246 -22.275793 2.593188
13.865246 -22.275793 2.5141881
15.465246 -22.275793 2.3061881
16.565247 -22.275793 2.1511879
-20.134754 -22.375793 2.192188
-19.734755 -22.375793 2.795188
-18.434753 -22.375793 2.5461881
-17.534754 -22.375793 2.4071879
-17.234755 -22.375793 2.3881879
-15.934754 -22.375793 2.3031881
-14.134754 -22.375793 2.1751881
-8.5347538 -22.375793 2.1571879
-8.1347542 -22.375793 2.2311881
-7.7347541 -22.375793 2.3611879
-7.4347539 -22.375793 2.456188
-7.0347538 -22.375793 2.5851879
-6.834754 -22.375793 2.679188
-6.1347542 -22.375793 2.9271879
-5.6347542 -22.375793 3.0981879
-5.4347539 -22.375793 3.153188
-5.0347538 -22.375793 3.2791879
-4.834754 -22.375793 3.3091879
-4.6347542 -22.375793 3.3561881
-4.4347539 -22.375793 3.403188
-3.9347539 -22.375793 3.469188
-3.334754 -22.375793 3.5421879
-3.1347539 -22.375793 3.558188
-2.4347539 -22.375793 3.581188
-1.934754 -22.375793 3.564188
-1.434754 -22.375793 3.580188
-0.73475403 -22.375793 3.5591879
-0.53475398 -22.375793 3.558188
-0.33475399 -22.375793 3.5501881
0.16524599 -22.375793 3.5301881
0.365246 -22.375793 3.5191879
0.56524599 -22.375793 3.5091879
0.76524597 -22.375793 3.511188
0.96524602 -22.375793 3.5001881
1.265246 -22.375793 3.4841881
1.465246 -22.375793 3.4731879
2.2652459 -22.375793 3.4371879
2.665246 -22.375793 3.4021881
3.465246 -22.375793 3.370188
3.665246 -22.375793 3.364188
4.3652458 -22.375793 3.3121879
4.7652459 -22.375793 3.271188
5.165246 -22.375793 3.2491879
5.5652461 -22.375793 3.2241881
6.4652462 -22.375793 3.1801879
6.9652462 -22.375793 3.1481881
7.4652462 -22.375793 3.1181879
8.0652456 -22.375793 3.071188
8.665246 -22.375793 3.058188
9.2652464 -22.375793 2.9971881
12.665246 -22.375793 2.646188
12.965246 -22.375793 2.617188
14.165246 -22.375793 2.4771881
14.665246 -22.375793 2.4141879
17.265245 -22.375793 2.021188
17.765245 -22.375793 1.9071881
-20.034754 -22.475794 2.3421879
-18.934753 -22.475794 2.6551881
-18.134754 -22.475794 2.5061879
-17.834755 -22.475794 2.449188
-16.734755 -22.475794 2.3721881
-15.234754 -22.475794 2.2801881
-14.734754 -22.475794 2.2261879
-13.834754 -22.475794 2.1741879
-13.434754 -22.475794 2.090188
-13.034754 -22.475794 2.034188
-12.334754 -22.475794 1.919188
-11.834754 -22.475794 1.904188
-10.434754 -22.475794 1.922188
-10.134754 -22.475794 1.921188
-9.2347536 -22.475794 2.038188
-8.9347544 -22.475794 2.077188
-7.9347539 -22.475794 2.317188
-6.334754 -22.475794 2.8981881
-5.9347539 -22.475794 3.008188
-5.2347541 -22.475794 3.215188
-4.1347542 -22.475794 3.456188
-3.7347541 -22.475794 3.511188
-3.534754 -22.475794 3.5221879
-2.834754 -22.475794 3.574188
-2.6347539 -22.475794 3.570188
-2.1347539 -22.475794 3.5851879
-1.034754 -22.475794 3.570188
-0.034754001 -22.475794 3.534188
1.665246 -22.475794 3.472188
1.8652461 -22.475794 3.4571879
2.465246 -22.475794 3.419188
2.965246 -22.475794 3.399188
4.165246 -22.475794 3.324188
4.5652461 -22.475794 3.307188
5.8652458 -22.475794 3.1981881
6.2652459 -22.475794 3.176188
6.7652459 -22.475794 3.149188
7.8652458 -22.475794 3.094188
8.2652464 -22.475794 3.0751879
9.665246 -22.475794 2.9381881
9.9652462 -22.475794 2.9281881
10.365246 -22.475794 2.8921881
10.865246 -22.475794 2.8451879
11.765246 -22.475794 2.7501881
12.365246 -22.475794 2.6741879
13.565246 -22.475794 2.528188
15.165246 -22.475794 2.3331881
16.265245 -22.475794 2.1671879
-19.734755 -22.575794 2.8331881
-19.434753 -22.575794 2.7721879
-16.934753 -22.575794 2.429188
-12.634754 -22.575794 1.982188
-9.834754 -22.575794 1.977188
-9.5347538 -22.575794 2.001188
-8.334754 -22.575794 2.195188
-7.334754 -22.575794 2.488188
-6.9347539 -22.575794 2.6441879
-6.6347542 -22.575794 2.762188
-5.4347539 -22.575794 3.1441879
-5.0347538 -22.575794 3.2591879
-4.834754 -22.575794 3.3231881
-4.6347542 -22.575794 3.3891881
-4.334754 -22.575794 3.4211881
-3.9347539 -22.575794 3.4871881
-3.1347539 -22.575794 3.5691881
-2.4347539 -22.575794 3.590188
-1.934754 -22.575794 3.5851879
-1.734754 -22.575794 3.590188
-1.234754 -22.575794 3.577188
-0.634754 -22.575794 3.568188
-0.234754 -22.575794 3.547188
0.16524599 -22.575794 3.528188
0.46524599 -22.575794 3.5261879
0.76524597 -22.575794 3.511188
1.065246 -22.575794 3.5001881
2.0652461 -22.575794 3.4411881
2.2652459 -22.575794 3.4281881
2.665246 -22.575794 3.4011879
3.2652459 -22.575794 3.3841879
3.465246 -22.575794 3.367188
3.965246 -22.575794 3.3381879
4.3652458 -22.575794 3.320188
5.0652461 -22.575794 3.2541881
5.665246 -22.575794 3.2241881
6.0652461 -22.575794 3.196188
7.2652459 -22.575794 3.1181879
7.5652461 -22.575794 3.1021881
8.8652458 -22.575794 3.0101881
11.165246 -22.575794 2.7871881
11.465246 -22.575794 2.765188
12.065246 -22.575794 2.6911881
13.265246 -22.575794 2.5731881
14.465246 -22.575794 2.416188
15.565246 -22.575794 2.278188
15.965246 -22.575794 2.2171879
-19.834755 -22.675795 2.7111881
-19.134754 -22.675795 2.729188
-18.334755 -22.675795 2.5881879
-17.934753 -22.675795 2.547188
-17.334755 -22.675795 2.4531879
-16.134754 -22.675795 2.3791881
-15.834754 -22.675795 2.3521881
-15.534754 -22.675795 2.330188
-14.234754 -22.675795 2.2171879
-11.334754 -22.675795 1.913188
-10.734754 -22.675795 1.938188
-8.6347542 -22.675795 2.160188
-7.7347541 -22.675795 2.3751881
-6.1347542 -22.675795 2.9381881
-5.9347539 -22.675795 2.998188
-5.7347541 -22.675795 3.067188
-5.2347541 -22.675795 3.2331879
-4.1347542 -22.675795 3.475188
-3.6347539 -22.675795 3.5301881
-3.4347539 -22.675795 3.5561881
-2.9347539 -22.675795 3.5831881
-2.2347541 -22.675795 3.6061881
-1.534754 -22.675795 3.594188
-0.93475401 -22.675795 3.581188
-0.43475401 -22.675795 3.545188
-0.034754001 -22.675795 3.5371881
1.265246 -22.675795 3.4901879
1.465246 -22.675795 3.4761879
1.665246 -22.675795 3.4741881
2.965246 -22.675795 3.403188
3.665246 -22.675795 3.3591881
4.665246 -22.675795 3.2771881
5.3652458 -22.675795 3.2311881
6.4652462 -22.675795 3.166188
6.8652458 -22.675795 3.130188
7.7652459 -22.675795 3.0851879
8.4652462 -22.675795 3.0421879
9.165246 -22.675795 2.9761879
9.4652462 -22.675795 2.9481881
9.8652458 -22.675795 2.906188
10.165246 -22.675795 2.8841879
14.165246 -22.675795 2.442188
16.765245 -22.675795 2.0791881
-20.034754 -22.775793 2.3681879
-19.534754 -22.775793 2.843188
-18.534754 -22.775793 2.6671879
-17.734755 -22.775793 2.5071881
-16.534754 -22.775793 2.423188
-14.834754 -22.775793 2.2701881
-13.534754 -22.775793 2.176188
-11.034754 -22.775793 1.936188
-10.234754 -22.775793 1.964188
-9.2347536 -22.775793 2.070188
-8.9347544 -22.775793 2.1011879
-7.9347539 -22.775793 2.3351879
-7.4347539 -22.775793 2.482188
-7.1347542 -22.775793 2.5821879
-6.6347542 -22.775793 2.7701881
-6.334754 -22.775793 2.8811879
-5.4347539 -22.775793 3.172188
-4.9347539 -22.775793 3.314188
-4.7347541 -22.775793 3.3621881
-4.5347538 -22.775793 3.4081881
-3.834754 -22.775793 3.5171881
-3.2347541 -22.775793 3.570188
-2.7347541 -22.775793 3.5961881
-2.4347539 -22.775793 3.591188
-2.034754 -22.775793 3.6011879
-1.234754 -22.775793 3.590188
-0.73475403 -22.775793 3.5721879
-0.234754 -22.775793 3.545188
0.365246 -22.775793 3.528188
0.865246 -22.775793 3.5061879
1.065246 -22.775793 3.502188
1.965246 -22.775793 3.4571879
2.2652459 -22.775793 3.436188
2.465246 -22.775793 3.432188
2.665246 -22.775793 3.406188
3.3652461 -22.775793 3.367188
4.0652461 -22.775793 3.314188
4.2652459 -22.775793 3.3121879
4.8652458 -22.775793 3.2641881
5.5652461 -22.775793 3.2101879
5.9652462 -22.775793 3.186188
7.0652461 -22.775793 3.1181879
8.0652456 -22.775793 3.0561881
10.965246 -22.775793 2.7831881
11.865246 -22.775793 2.6911881
12.365246 -22.775793 2.6481881
13.565246 -22.775793 2.5071881
13.865246 -22.775793 2.4771881
14.865246 -22.775793 2.366188
15.165246 -22.775793 2.3051879
17.165245 -22.775793 1.994188
17.565247 -22.775793 1.9021879
-19.734755 -22.875793 2.9011879
-18.934753 -22.875793 2.7431879
-17.134754 -22.875793 2.488188
-16.834755 -22.875793 2.462188
-15.234754 -22.875793 2.347188
-14.434754 -22.875793 2.2361879
-13.234754 -22.875793 2.146188
-12.434754 -22.875793 2.012188
-12.034754 -22.875793 1.9711879
-10.534754 -22.875793 1.936188
-9.9347544 -22.875793 2.0091879
-9.6347542 -22.875793 2.0371881
-8.2347536 -22.875793 2.252188
-7.6347542 -22.875793 2.406188
-6.9347539 -22.875793 2.6541879
-5.9347539 -22.875793 3.0161879
-5.7347541 -22.875793 3.087188
-5.1347542 -22.875793 3.284188
-4.2347541 -22.875793 3.4501879
-3.4347539 -22.875793 3.547188
-3.034754 -22.875793 3.5781879
-2.2347541 -22.875793 3.5981879
-1.734754 -22.875793 3.6081879
-1.434754 -22.875793 3.5891881
-1.034754 -22.875793 3.5981879
-0.034754001 -22.875793 3.5401881
0.16524599 -22.875793 3.534188
0.56524599 -22.875793 3.5291879
1.3652461 -22.875793 3.4761879
1.765246 -22.875793 3.469188
2.8652461 -22.875793 3.4121881
3.0652461 -22.875793 3.390188
3.665246 -22.875793 3.353188
4.4652462 -22.875793 3.284188
5.0652461 -22.875793 3.2371881
5.3652458 -22.875793 3.202188
6.2652459 -22.875793 3.149188
6.5652461 -22.875793 3.1381879
7.2652459 -22.875793 3.0821879
7.665246 -22.875793 3.0591879
8.665246 -22.875793 2.9931879
9.665246 -22.875793 2.9081881
10.365246 -22.875793 2.8291881
10.665246 -22.875793 2.8161881
11.265246 -22.875793 2.7501881
12.665246 -22.875793 2.613188
12.965246 -22.875793 2.5851879
14.465246 -22.875793 2.3971879
16.065247 -22.875793 2.156188
16.465246 -22.875793 2.0851879
-19.934753 -22.975794 2.475188
-19.234755 -22.975794 2.8221879
-17.934753 -22.975794 2.6061881
-17.534754 -22.975794 2.544188
-17.334755 -22.975794 2.5231881
-16.234755 -22.975794 2.4341879
-15.534754 -22.975794 2.399188
-13.834754 -22.975794 2.229188
-12.734754 -22.975794 2.081188
-11.734754 -22.975794 1.974188
-7.334754 -22.975794 2.5191879
-6.7347541 -22.975794 2.7331879
-6.1347542 -22.975794 2.9511881
-5.5347538 -22.975794 3.159188
-5.334754 -22.975794 3.212188
-4.9347539 -22.975794 3.318188
-4.7347541 -22.975794 3.3851881
-4.4347539 -22.975794 3.4181881
-4.0347538 -22.975794 3.498188
-3.834754 -22.975794 3.528188
-3.6347539 -22.975794 3.5391879
-2.834754 -22.975794 3.6081879
-2.6347539 -22.975794 3.6091881
-2.4347539 -22.975794 3.5921879
-1.234754 -22.975794 3.574188
-0.83475399 -22.975794 3.5791881
-0.43475401 -22.975794 3.568188
0.76524597 -22.975794 3.512188
1.565246 -22.975794 3.475188
1.965246 -22.975794 3.462188
2.165246 -22.975794 3.439188
2.3652461 -22.975794 3.420188
2.5652461 -22.975794 3.4251881
3.3652461 -22.975794 3.364188
3.8652461 -22.975794 3.3321879
4.165246 -22.975794 3.3061881
4.8652458 -22.975794 3.2461879
6.0652461 -22.975794 3.150188
6.9652462 -22.975794 3.0851879
7.4652462 -22.975794 3.0691881
7.9652462 -22.975794 3.035188
8.3652458 -22.975794 3.0141881
8.9652462 -22.975794 2.962188
10.065246 -22.975794 2.8681879
12.165246 -22.975794 2.6551881
13.365246 -22.975794 2.5141881
14.065246 -22.975794 2.413188
15.665246 -22.975794 2.2141881
-20.134754 -23.075794 2.307188
-19.834755 -23.075794 2.7991879
-18.734755 -23.075794 2.7791879
-18.234755 -23.075794 2.6781881
-16.934753 -23.075794 2.5191879
-16.534754 -23.075794 2.485188
-15.934754 -23.075794 2.4311881
-14.234754 -23.075794 2.261188
-10.834754 -23.075794 1.972188
-8.6347542 -23.075794 2.1801879
-7.834754 -23.075794 2.3721881
-6.4347539 -23.075794 2.850188
-5.9347539 -23.075794 3.0161879
-5.7347541 -23.075794 3.097188
-4.2347541 -23.075794 3.4741881
-3.4347539 -23.075794 3.5621879
-3.1347539 -23.075794 3.5891881
-1.934754 -23.075794 3.6111879
-1.734754 -23.075794 3.6081879
-0.634754 -23.075794 3.568188
-0.134754 -23.075794 3.557188
0.16524599 -23.075794 3.5331881
0.365246 -23.075794 3.5331881
0.56524599 -23.075794 3.5231881
0.96524602 -23.075794 3.498188
1.165246 -23.075794 3.4931879
1.3652461 -23.075794 3.4871881
3.5652461 -23.075794 3.3521881
5.4652462 -23.075794 3.1911881
5.7652459 -23.075794 3.169188
6.3652458 -23.075794 3.1191881
8.165246 -23.075794 3.002188
9.165246 -23.075794 2.9141879
10.865246 -23.075794 2.781188
11.465246 -23.075794 2.6981881
11.765246 -23.075794 2.676188
14.665246 -23.075794 2.340188
15.365246 -23.075794 2.251188
-19.734755 -23.175795 2.978188
-19.534754 -23.175795 2.9411881
-19.034754 -23.175795 2.8361881
-17.334755 -23.175795 2.5491879
-15.234754 -23.175795 2.4071879
-14.734754 -23.175795 2.3561881
-13.334754 -23.175795 2.232188
-12.434754 -23.175795 2.0691881
-12.034754 -23.175795 2.0271881
-11.334754 -23.175795 1.9811881
-9.9347544 -23.175795 2.0301881
-9.334754 -23.175795 2.080188
-9.0347538 -23.175795 2.1241879
-7.5347538 -23.175795 2.4401879
-7.1347542 -23.175795 2.600188
-6.7347541 -23.175795 2.728188
-6.1347542 -23.175795 2.9511881
-5.5347538 -23.175795 3.163188
-5.2347541 -23.175795 3.2661879
-5.0347538 -23.175795 3.330188
-4.834754 -23.175795 3.3821881
-4.5347538 -23.175795 3.4251881
-4.0347538 -23.175795 3.5091879
-3.834754 -23.175795 3.5371881
-2.9347539 -23.175795 3.603188
-2.7347541 -23.175795 3.613188
-2.1347539 -23.175795 3.614188
-1.434754 -23.175795 3.6111879
-1.234754 -23.175795 3.6081879
-0.93475401 -23.175795 3.591188
-0.43475401 -23.175795 3.570188
0.76524597 -23.175795 3.5001881
1.565246 -23.175795 3.4811881
1.8652461 -23.175795 3.4611881
2.0652461 -23.175795 3.4481881
2.2652459 -23.175795 3.4311881
2.465246 -23.175795 3.4251881
2.7652459 -23.175795 3.3851881
2.965246 -23.175795 3.3841879
3.2652459 -23.175795 3.3651879
3.965246 -23.175795 3.3101881
4.5652461 -23.175795 3.262188
5.2652459 -23.175795 3.1941881
6.165246 -23.175795 3.1391881
6.665246 -23.175795 3.094188
7.2652459 -23.175795 3.0521879
7.665246 -23.175795 3.044188
8.8652458 -23.175795 2.9281881
9.665246 -23.175795 2.867188
10.365246 -23.175795 2.8101881
12.665246 -23.175795 2.5861881
12.965246 -23.175795 2.547188
13.565246 -23.175795 2.475188
13.865246 -23.175795 2.4411881
14.265246 -23.175795 2.3921881
14.965246 -23.175795 2.284188
16.865246 -23.175795 1.977188
17.365246 -23.175795 1.909188
-20.034754 -23.275793 2.380188
-18.834755 -23.275793 2.831188
-18.434753 -23.275793 2.7541881
-17.934753 -23.275793 2.670188
-17.034754 -23.275793 2.545188
-16.734755 -23.275793 2.5401881
-16.334755 -23.275793 2.4971881
-15.734754 -23.275793 2.4711881
-15.434754 -23.275793 2.4531879
-13.734754 -23.275793 2.2591879
-12.834754 -23.275793 2.1521881
-10.334754 -23.275793 2.015188
-8.2347536 -23.275793 2.265188
-7.334754 -23.275793 2.5191879
-6.9347539 -23.275793 2.6651881
-5.9347539 -23.275793 3.0331881
-5.7347541 -23.275793 3.093188
-3.534754 -23.275793 3.564188
-3.334754 -23.275793 3.5961881
-3.1347539 -23.275793 3.6051879
-2.534754 -23.275793 3.6191881
-2.334754 -23.275793 3.6221881
-1.934754 -23.275793 3.6251881
-1.6347539 -23.275793 3.6181879
-0.234754 -23.275793 3.5721879
-0.034754001 -23.275793 3.5591879
3.7652459 -23.275793 3.3161881
4.3652458 -23.275793 3.2661879
5.0652461 -23.275793 3.2101879
6.8652458 -23.275793 3.0561881
7.9652462 -23.275793 2.9971881
9.3652458 -23.275793 2.8781879
10.065246 -23.275793 2.811188
10.665246 -23.275793 2.778188
11.165246 -23.275793 2.7231879
16.465246 -23.275793 2.047188
-19.834755 -23.375793 2.8721881
-19.234755 -23.375793 2.9141879
-18.134754 -23.375793 2.7241881
-17.534754 -23.375793 2.6391881
-17.234755 -23.375793 2.6021881
-16.534754 -23.375793 2.5561881
-16.134754 -23.375793 2.5301881
-14.234754 -23.375793 2.3231881
-10.734754 -23.375793 1.960188
-9.5347538 -23.375793 2.0751879
-8.5347538 -23.375793 2.219188
-7.6347542 -23.375793 2.455188
-6.5347538 -23.375793 2.8031881
-6.334754 -23.375793 2.886188
-6.1347542 -23.375793 2.9471879
-5.4347539 -23.375793 3.2331879
-5.2347541 -23.375793 3.2801881
-5.0347538 -23.375793 3.3261881
-4.834754 -23.375793 3.3741879
-4.334754 -23.375793 3.492188
-4.1347542 -23.375793 3.5131879
-3.7347541 -23.375793 3.5591879
-2.9347539 -23.375793 3.607188
-1.434754 -23.375793 3.6221881
-1.234754 -23.375793 3.616188
-0.73475403 -23.375793 3.5961881
-0.43475401 -23.375793 3.5861881
0.16524599 -23.375793 3.548188
0.46524599 -23.375793 3.524188
0.76524597 -23.375793 3.5001881
1.065246 -23.375793 3.4931879
1.265246 -23.375793 3.479188
1.565246 -23.375793 3.462188
1.8652461 -23.375793 3.4371879
2.0652461 -23.375793 3.4411881
2.3652461 -23.375793 3.4121881
2.665246 -23.375793 3.393188
2.8652461 -23.375793 3.4011879
3.165246 -23.375793 3.360188
3.3652461 -23.375793 3.3491881
3.5652461 -23.375793 3.3421879
4.165246 -23.375793 3.291188
5.5652461 -23.375793 3.149188
5.9652462 -23.375793 3.1411879
6.3652458 -23.375793 3.087188
7.0652461 -23.375793 3.0491879
7.3652458 -23.375793 3.0361879
7.7652459 -23.375793 3.0041881
8.2652464 -23.375793 2.9711881
8.5652456 -23.375793 2.936188
11.565246 -23.375793 2.666188
11.965246 -23.375793 2.6061881
12.265246 -23.375793 2.5821879
13.365246 -23.375793 2.4531879
14.665246 -23.375793 2.3151879
15.365246 -23.375793 2.1811881
15.865246 -23.375793 2.1241879
-20.134754 -23.475794 2.377188
-19.734755 -23.475794 3.058188
-19.534754 -23.475794 3.0041881
-19.034754 -23.475794 2.9121881
-18.634754 -23.475794 2.8231881
-15.934754 -23.475794 2.5191879
-15.134754 -23.475794 2.445188
-14.634754 -23.475794 2.4111879
-13.934754 -23.475794 2.3251879
-13.434754 -23.475794 2.274188
-11.934754 -23.475794 2.068188
-11.434754 -23.475794 2.034188
-9.834754 -23.475794 2.068188
-8.834754 -23.475794 2.1911881
-7.834754 -23.475794 2.383188
-7.2347541 -23.475794 2.5631881
-6.834754 -23.475794 2.706188
-5.9347539 -23.475794 3.041188
-5.7347541 -23.475794 3.1191881
-4.6347542 -23.475794 3.423188
-3.9347539 -23.475794 3.5421879
-3.534754 -23.475794 3.580188
-2.7347541 -23.475794 3.6281879
-2.534754 -23.475794 3.6341879
-2.334754 -23.475794 3.6391881
-2.1347539 -23.475794 3.633188
-1.934754 -23.475794 3.630188
-1.734754 -23.475794 3.6311879
-0.93475401 -23.475794 3.6111879
-0.134754 -23.475794 3.5631881
3.965246 -23.475794 3.2931881
4.4652462 -23.475794 3.241188
4.7652459 -23.475794 3.2201879
5.3652458 -23.475794 3.159188
6.165246 -23.475794 3.091188
6.7652459 -23.475794 3.047188
9.0652456 -23.475794 2.8791881
9.7652464 -23.475794 2.8251879
10.265246 -23.475794 2.7921879
10.965246 -23.475794 2.716188
14.365246 -23.475794 2.3051879
17.065247 -23.475794 1.9071881
-19.934753 -23.575794 2.528188
-17.834755 -23.575794 2.7201879
-17.034754 -23.575794 2.594188
-16.634754 -23.575794 2.590188
-16.334755 -23.575794 2.558188
-15.534754 -23.575794 2.511188
-13.034754 -23.575794 2.2801881
-12.734754 -23.575794 2.2401879
-12.434754 -23.575794 2.143188
-11.134754 -23.575794 2.051188
-10.434754 -23.575794 2.0521879
-10.134754 -23.575794 2.0631881
-9.2347536 -23.575794 2.1451881
-8.1347542 -23.575794 2.324188
-7.4347539 -23.575794 2.5161879
-6.6347542 -23.575794 2.765188
-5.5347538 -23.575794 3.1811881
-5.334754 -23.575794 3.2461879
-5.0347538 -23.575794 3.3291881
-4.834754 -23.575794 3.3951881
-4.2347541 -23.575794 3.492188
-3.2347541 -23.575794 3.6111879
-2.9347539 -23.575794 3.6291881
-1.334754 -23.575794 3.6341879
-1.1347539 -23.575794 3.620188
-0.73475403 -23.575794 3.600188
-0.33475399 -23.575794 3.567188
0.265246 -23.575794 3.5461881
0.46524599 -23.575794 3.518188
0.66524601 -23.575794 3.5091879
1.165246 -23.575794 3.4741881
1.965246 -23.575794 3.429188
2.465246 -23.575794 3.3851881
2.665246 -23.575794 3.386188
3.0652461 -23.575794 3.3511879
3.2652459 -23.575794 3.3451879
3.465246 -23.575794 3.3251879
3.665246 -23.575794 3.3031881
4.2652459 -23.575794 3.252188
5.165246 -23.575794 3.179188
5.8652458 -23.575794 3.1181879
6.5652461 -23.575794 3.0491879
8.0652456 -23.575794 2.9341879
8.3652458 -23.575794 2.9141879
9.3652458 -23.575794 2.8291881
10.565246 -23.575794 2.738188
11.765246 -23.575794 2.5961881
12.765246 -23.575794 2.512188
13.065246 -23.575794 2.472188
14.065246 -23.575794 2.3331881
15.065246 -23.575794 2.192188
16.265245 -23.575794 2.018188
16.665245 -23.575794 1.9481879
-19.834755 -23.675795 3.0991881
-19.434753 -23.675795 3.0391879
-18.934753 -23.675795 2.9441881
-18.534754 -23.675795 2.877188
-18.134754 -23.675795 2.7891879
-17.434753 -23.675795 2.696188
-16.834755 -23.675795 2.6321881
-16.134754 -23.675795 2.5821879
-14.334754 -23.675795 2.409188
-10.834754 -23.675795 2.057188
-9.5347538 -23.675795 2.114188
-7.6347542 -23.675795 2.4731879
-7.1347542 -23.675795 2.6181879
-6.4347539 -23.675795 2.844188
-6.1347542 -23.675795 2.965188
-4.6347542 -23.675795 3.429188
-4.4347539 -23.675795 3.4741881
-3.834754 -23.675795 3.5631881
-3.6347539 -23.675795 3.5751879
-3.4347539 -23.675795 3.597188
-1.534754 -23.675795 3.6341879
-0.93475401 -23.675795 3.6121881
-0.53475398 -23.675795 3.594188
0.065246001 -23.675795 3.5501881
0.96524602 -23.675795 3.4841881
1.3652461 -23.675795 3.4731879
1.565246 -23.675795 3.4471879
1.765246 -23.675795 3.4351881
2.2652459 -23.675795 3.403188
2.8652461 -23.675795 3.367188
4.665246 -23.675795 3.2041881
4.9652462 -23.675795 3.176188
5.665246 -23.675795 3.1281879
6.3652458 -23.675795 3.0721879
6.8652458 -23.675795 3.0131879
7.165246 -23.675795 2.9941881
7.5652461 -23.675795 2.9711881
7.8652458 -23.675795 2.9511881
8.8652458 -23.675795 2.870188
11.365246 -23.675795 2.633188
12.265246 -23.675795 2.535188
13.365246 -23.675795 2.3971879
13.765246 -23.675795 2.340188
14.665246 -23.675795 2.2371881
-20.034754 -23.775793 2.436188
-19.134754 -23.775793 3.0031879
-18.334755 -23.775793 2.867188
-17.134754 -23.775793 2.649188
-15.834754 -23.775793 2.574188
-15.334754 -23.775793 2.524188
-14.934754 -23.775793 2.4741881
-14.634754 -23.775793 2.4631879
-14.034754 -23.775793 2.413188
-13.634754 -23.775793 2.334188
-13.234754 -23.775793 2.2871881
-11.934754 -23.775793 2.136188
-9.0347538 -23.775793 2.186188
-8.4347544 -23.775793 2.284188
-7.9347539 -23.775793 2.390188
-7.334754 -23.775793 2.571188
-6.9347539 -23.775793 2.6781881
-6.7347541 -23.775793 2.751188
-5.834754 -23.775793 3.0851879
-5.1347542 -23.775793 3.3121879
-4.2347541 -23.775793 3.5131879
-4.0347538 -23.775793 3.5501881
-3.2347541 -23.775793 3.620188
-2.9347539 -23.775793 3.6441879
-2.6347539 -23.775793 3.653188
-2.4347539 -23.775793 3.666188
-2.2347541 -23.775793 3.6621881
-2.034754 -23.775793 3.6571879
-1.734754 -23.775793 3.6551881
-1.334754 -23.775793 3.636188
-1.1347539 -23.775793 3.6341879
-0.73475403 -23.775793 3.6051879
-0.33475399 -23.775793 3.580188
-0.134754 -23.775793 3.570188
0.365246 -23.775793 3.5261879
0.56524599 -23.775793 3.511188
0.76524597 -23.775793 3.5061879
3.0652461 -23.775793 3.3351879
4.0652461 -23.775793 3.252188
4.3652458 -23.775793 3.2201879
5.4652462 -23.775793 3.114188
6.165246 -23.775793 3.0651879
8.5652456 -23.775793 2.8651879
9.7652464 -23.775793 2.7761879
10.265246 -23.775793 2.738188
11.965246 -23.775793 2.5391879
14.265246 -23.775793 2.258188
15.865246 -23.775793 2.0201881
-19.934753 -23.875793 2.6511879
-19.534754 -23.875793 3.0991881
-19.334755 -23.875793 3.0691881
-18.734755 -23.875793 2.9581881
-18.034754 -23.875793 2.840188
-17.634754 -23.875793 2.751188
-16.634754 -23.875793 2.646188
-16.434753 -23.875793 2.6981881
-16.234755 -23.875793 2.633188
-15.534754 -23.875793 2.5621879
-12.934754 -23.875793 2.295188
-12.634754 -23.875793 2.268188
-12.334754 -23.875793 2.206188
-11.534754 -23.875793 2.0921879
-11.134754 -23.875793 2.0371881
-10.334754 -23.875793 2.097188
-10.034754 -23.875793 2.1091881
-9.7347536 -23.875793 2.1211879
-6.334754 -23.875793 2.883188
-6.0347538 -23.875793 2.9991879
-5.6347542 -23.875793 3.149188
-5.334754 -23.875793 3.258188
-4.9347539 -23.875793 3.367188
-4.6347542 -23.875793 3.459188
-4.4347539 -23.875793 3.4871881
-3.7347541 -23.875793 3.5891881
-1.534754 -23.875793 3.6451881
0.16524599 -23.875793 3.535188
0.96524602 -23.875793 3.475188
1.265246 -23.875793 3.468188
1.565246 -23.875793 3.4401879
1.765246 -23.875793 3.4281881
2.0652461 -23.875793 3.410188
2.2652459 -23.875793 3.399188
2.5652461 -23.875793 3.370188
2.7652459 -23.875793 3.3491881
3.2652459 -23.875793 3.318188
3.465246 -23.875793 3.3061881
3.8652461 -23.875793 3.2661879
5.165246 -23.875793 3.1421881
5.7652459 -23.875793 3.0851879
7.0652461 -23.875793 2.9641881
7.3652458 -23.875793 2.9281881
8.2652464 -23.875793 2.8841879
9.3652458 -23.875793 2.794188
10.565246 -23.875793 2.6901879
10.865246 -23.875793 2.6611879
11.165246 -23.875793 2.6121881
11.565246 -23.875793 2.571188
12.965246 -23.875793 2.420188
14.965246 -23.875793 2.156188
15.465246 -23.875793 2.0851879
-19.734755 -23.975794 3.1911881
-19.134754 -23.975794 3.071188
-18.534754 -23.975794 2.966188
-18.234755 -23.975794 2.906188
-17.034754 -23.975794 2.6851881
-14.334754 -23.975794 2.4731879
-13.934754 -23.975794 2.4341879
-13.434754 -23.975794 2.3481879
-10.734754 -23.975794 2.1091881
-9.334754 -23.975794 2.163188
-8.834754 -23.975794 2.2401879
-7.4347539 -23.975794 2.5131879
-6.5347538 -23.975794 2.831188
-5.834754 -23.975794 3.0721879
-3.4347539 -23.975794 3.613188
-3.2347541 -23.975794 3.636188
-3.034754 -23.975794 3.6511879
-2.7347541 -23.975794 3.669188
-2.4347539 -23.975794 3.6711881
-1.834754 -23.975794 3.6741879
-1.1347539 -23.975794 3.633188
-0.93475401 -23.975794 3.6281879
-0.73475403 -23.975794 3.613188
-0.43475401 -23.975794 3.600188
-0.234754 -23.975794 3.5851879
-0.034754001 -23.975794 3.5621879
0.365246 -23.975794 3.5191879
0.56524599 -23.975794 3.502188
0.76524597 -23.975794 3.4931879
4.4652462 -23.975794 3.2101879
4.7652459 -23.975794 3.192188
5.9652462 -23.975794 3.0591879
6.2652459 -23.975794 3.0361879
6.665246 -23.975794 2.989188
7.7652459 -23.975794 2.9051881
8.8652458 -23.975794 2.8121879
9.5652456 -23.975794 2.739188
10.065246 -23.975794 2.712188
12.265246 -23.975794 2.4971881
12.665246 -23.975794 2.4471879
13.565246 -23.975794 2.3261881
13.965246 -23.975794 2.2531879
16.765245 -23.975794 1.857188
-20.034754 -24.075794 2.5031879
-19.934753 -24.075794 2.807188
-19.434753 -24.075794 3.1411879
-18.934753 -24.075794 3.0491879
-17.734755 -24.075794 2.853188
-16.434753 -24.075794 2.673188
-15.834754 -24.075794 2.6521881
-15.334754 -24.075794 2.610188
-14.934754 -24.075794 2.5601881
-11.734754 -24.075794 2.1711881
-8.2347536 -24.075794 2.3361881
-7.6347542 -24.075794 2.4831879
-7.1347542 -24.075794 2.6181879
-6.834754 -24.075794 2.712188
-6.2347541 -24.075794 2.939188
-6.0347538 -24.075794 3.002188
-5.5347538 -24.075794 3.1741879
-5.2347541 -24.075794 3.2921879
-5.0347538 -24.075794 3.340188
-4.5347538 -24.075794 3.459188
-4.334754 -24.075794 3.5061879
-4.1347542 -24.075794 3.5371881
-3.9347539 -24.075794 3.5751879
-3.7347541 -24.075794 3.5951879
-2.2347541 -24.075794 3.6771879
-2.034754 -24.075794 3.6941881
-1.334754 -24.075794 3.6511879
0.96524602 -24.075794 3.475188
1.165246 -24.075794 3.462188
1.3652461 -24.075794 3.452188
1.765246 -24.075794 3.4181881
2.0652461 -24.075794 3.386188
2.2652459 -24.075794 3.370188
2.8652461 -24.075794 3.3321879
3.165246 -24.075794 3.3091879
3.5652461 -24.075794 3.281188
4.0652461 -24.075794 3.232188
4.9652462 -24.075794 3.1471879
5.2652459 -24.075794 3.1111879
5.5652461 -24.075794 3.081188
8.5652456 -24.075794 2.831188
11.365246 -24.075794 2.5561881
11.965246 -24.075794 2.485188
13.265246 -24.075794 2.3221879
16.165245 -24.075794 1.941188
-19.934753 -24.175795 2.9861879
-19.834755 -24.175795 3.2431879
-19.634754 -24.175795 3.218188
-18.634754 -24.175795 3.061188
-18.034754 -24.175795 2.936188
-17.534754 -24.175795 2.853188
-17.334755 -24.175795 2.8051879
-17.034754 -24.175795 2.768188
-16.834755 -24.175795 2.718188
-16.234755 -24.175795 2.705188
-15.634754 -24.175795 2.6551881
-14.534754 -24.175795 2.538188
-13.134754 -24.175795 2.3591881
-12.334754 -24.175795 2.285188
-11.234754 -24.175795 2.1471879
-10.034754 -24.175795 2.1471879
-9.7347536 -24.175795 2.160188
-9.0347538 -24.175795 2.218188
-7.9347539 -24.175795 2.4071879
-5.7347541 -24.175795 3.107188
-4.834754 -24.175795 3.3971879
-3.334754 -24.175795 3.649188
-2.9347539 -24.175795 3.6801879
-2.7347541 -24.175795 3.6851881
-2.534754 -24.175795 3.6771879
-1.834754 -24.175795 3.6671879
-1.6347539 -24.175795 3.6681881
-1.1347539 -24.175795 3.650188
-0.93475401 -24.175795 3.623188
-0.73475403 -24.175795 3.614188
-0.53475398 -24.175795 3.594188
-0.33475399 -24.175795 3.584188
-0.134754 -24.175795 3.567188
0.16524599 -24.175795 3.5501881
0.365246 -24.175795 3.5361879
0.56524599 -24.175795 3.5071881
0.76524597 -24.175795 3.4841881
1.565246 -24.175795 3.4311881
2.465246 -24.175795 3.357188
2.665246 -24.175795 3.3421879
3.7652459 -24.175795 3.2471881
4.3652458 -24.175795 3.182188
5.8652458 -24.175795 3.044188
6.4652462 -24.175795 2.9811881
6.8652458 -24.175795 2.939188
7.2652459 -24.175795 2.9211881
7.5652461 -24.175795 2.8781879
8.0652456 -24.175795 2.8551879
9.3652458 -24.175795 2.732188
9.7652464 -24.175795 2.699188
10.365246 -24.175795 2.6381879
10.665246 -24.175795 2.610188
12.465246 -24.175795 2.4141879
14.265246 -24.175795 2.1671879
14.865246 -24.175795 2.0921879
15.265246 -24.175795 2.041188
17.065247 -24.175795 1.706188
-20.134754 -24.275793 2.4511881
-19.334755 -24.275793 3.1751881
-19.034754 -24.275793 3.120188
-18.834755 -24.275793 3.0851879
-18.334755 -24.275793 3.008188
-14.234754 -24.275793 2.534188
-13.634754 -24.275793 2.456188
-12.634754 -24.275793 2.3231881
-12.034754 -24.275793 2.245188
-10.834754 -24.275793 2.1281879
-10.434754 -24.275793 2.1381879
-9.334754 -24.275793 2.2031879
-8.6347542 -24.275793 2.297188
-7.4347539 -24.275793 2.5431881
-6.9347539 -24.275793 2.6981881
-6.7347541 -24.275793 2.7671881
-6.4347539 -24.275793 2.8711879
-6.1347542 -24.275793 2.966188
-5.9347539 -24.275793 3.038188
-5.4347539 -24.275793 3.219188
-5.2347541 -24.275793 3.291188
-4.6347542 -24.275793 3.4501879
-4.4347539 -24.275793 3.5061879
-4.1347542 -24.275793 3.5591879
-3.6347539 -24.275793 3.640188
-3.1347539 -24.275793 3.689188
-2.334754 -24.275793 3.7131879
-2.1347539 -24.275793 3.706188
2.0652461 -24.275793 3.3711879
2.8652461 -24.275793 3.3131881
3.165246 -24.275793 3.2931881
3.465246 -24.275793 3.265188
4.165246 -24.275793 3.209188
4.7652459 -24.275793 3.1381879
5.0652461 -24.275793 3.0881879
5.4652462 -24.275793 3.070188
6.165246 -24.275793 2.992188
8.8652458 -24.275793 2.761188
10.065246 -24.275793 2.6551881
11.165246 -24.275793 2.547188
11.565246 -24.275793 2.5101881
12.165246 -24.275793 2.4351881
12.965246 -24.275793 2.3361881
15.765246 -24.275793 1.941188
16.465246 -24.275793 1.841188
-19.934753 -24.375793 3.1611879
-19.834755 -24.375793 3.3091879
-19.634754 -24.375793 3.284188
-18.534754 -24.375793 3.058188
-17.834755 -24.375793 2.959188
-17.434753 -24.375793 2.887188
-17.034754 -24.375793 2.8421879
-16.634754 -24.375793 2.7261879
-16.334755 -24.375793 2.7431879
-16.034754 -24.375793 2.715188
-15.834754 -24.375793 2.7491879
-15.434754 -24.375793 2.672188
-14.734754 -24.375793 2.6151879
-13.934754 -24.375793 2.5131879
-10.634754 -24.375793 2.2011881
-5.6347542 -24.375793 3.1351881
-5.0347538 -24.375793 3.357188
-4.834754 -24.375793 3.423188
-3.834754 -24.375793 3.6251881
-3.4347539 -24.375793 3.663188
-2.534754 -24.375793 3.7131879
-1.434754 -24.375793 3.683188
-1.234754 -24.375793 3.6641879
-1.034754 -24.375793 3.650188
-0.634754 -24.375793 3.614188
-0.33475399 -24.375793 3.6021881
-0.134754 -24.375793 3.5661881
0.365246 -24.375793 3.5391879
0.66524601 -24.375793 3.502188
0.865246 -24.375793 3.4871881
1.065246 -24.375793 3.468188
1.265246 -24.375793 3.4541881
1.565246 -24.375793 3.426188
1.8652461 -24.375793 3.3921881
2.5652461 -24.375793 3.3261881
3.965246 -24.375793 3.202188
7.8652458 -24.375793 2.8161881
8.2652464 -24.375793 2.798188
9.165246 -24.375793 2.722188
9.5652456 -24.375793 2.682188
13.365246 -24.375793 2.2561879
13.865246 -24.375793 2.1851881
14.565246 -24.375793 2.0951879
-18.834755 -24.475794 3.153188
-18.034754 -24.475794 2.995188
-17.234755 -24.475794 2.8811879
-16.834755 -24.475794 2.817188
-15.634754 -24.475794 2.7431879
-15.034754 -24.475794 2.6651881
-14.334754 -24.475794 2.610188
-13.434754 -24.475794 2.508188
-13.134754 -24.475794 2.466188
-12.834754 -24.475794 2.4141879
-11.634754 -24.475794 2.2461879
-11.034754 -24.475794 2.160188
-10.234754 -24.475794 2.189188
-9.7347536 -24.475794 2.1981881
-9.1347542 -24.475794 2.2501881
-8.834754 -24.475794 2.2801881
-8.4347544 -24.475794 2.3451879
-8.1347542 -24.475794 2.3971879
-7.6347542 -24.475794 2.4961879
-7.334754 -24.475794 2.5621879
-7.1347542 -24.475794 2.6511879
-6.834754 -24.475794 2.7261879
-6.4347539 -24.475794 2.883188
-6.2347541 -24.475794 2.943188
-6.0347538 -24.475794 3.024188
-5.834754 -24.475794 3.091188
-5.4347539 -24.475794 3.2431879
-5.2347541 -24.475794 3.2921879
-3.6347539 -24.475794 3.6521881
-3.034754 -24.475794 3.6971879
-2.834754 -24.475794 3.7111881
-1.934754 -24.475794 3.7081881
-1.6347539 -24.475794 3.705188
-0.83475399 -24.475794 3.650188
0.065246001 -24.475794 3.558188
2.165246 -24.475794 3.360188
2.7652459 -24.475794 3.2921879
3.2652459 -24.475794 3.2631879
3.5652461 -24.475794 3.2311881
4.4652462 -24.475794 3.143188
5.165246 -24.475794 3.074188
5.665246 -24.475794 3.0201881
6.3652458 -24.475794 2.955188
6.7652459 -24.475794 2.9211881
7.2652459 -24.475794 2.864188
7.5652461 -24.475794 2.843188
8.5652456 -24.475794 2.748188
9.8652458 -24.475794 2.6321881
10.465246 -24.475794 2.5691881
10.765246 -24.475794 2.534188
11.365246 -24.475794 2.4841881
11.965246 -24.475794 2.4311881
12.565246 -24.475794 2.3581879
-20.034754 -24.575794 2.5621879
-19.934753 -24.575794 3.0981879
-19.634754 -24.575794 3.3321879
-19.434753 -24.575794 3.3031881
-19.234755 -24.575794 3.271188
-19.034754 -24.575794 3.2261879
-18.534754 -24.575794 3.1321881
-18.234755 -24.575794 3.0651879
-17.734755 -24.575794 2.9801879
-17.434753 -24.575794 2.9371879
-16.434753 -24.575794 2.804188
-16.034754 -24.575794 2.817188
-15.834754 -24.575794 2.7661879
-15.434754 -24.575794 2.7671881
-14.534754 -24.575794 2.6511879
-14.134754 -24.575794 2.600188
-13.734754 -24.575794 2.558188
-12.334754 -24.575794 2.373188
-12.034754 -24.575794 2.330188
-9.4347544 -24.575794 2.241188
-7.834754 -24.575794 2.4671879
-6.6347542 -24.575794 2.820188
-5.6347542 -24.575794 3.1641879
-5.0347538 -24.575794 3.3521881
-4.7347541 -24.575794 3.478188
-4.5347538 -24.575794 3.492188
-4.2347541 -24.575794 3.557188
-3.9347539 -24.575794 3.6081879
-3.2347541 -24.575794 3.705188
-2.6347539 -24.575794 3.729188
-2.334754 -24.575794 3.729188
-2.1347539 -24.575794 3.732188
-1.434754 -24.575794 3.6941881
-1.234754 -24.575794 3.686188
-0.234754 -24.575794 3.5891881
0.265246 -24.575794 3.5371881
1.8652461 -24.575794 3.3811879
2.3652461 -24.575794 3.3381879
2.5652461 -24.575794 3.334188
3.0652461 -24.575794 3.2791879
3.7652459 -24.575794 3.2041881
4.0652461 -24.575794 3.1751881
4.9652462 -24.575794 3.0691881
5.4652462 -24.575794 3.0301881
5.9652462 -24.575794 2.9871881
6.9652462 -24.575794 2.8781879
8.8652458 -24.575794 2.7111881
10.165246 -24.575794 2.591188
11.065246 -24.575794 2.491188
11.665246 -24.575794 2.439188
12.965246 -24.575794 2.2641881
14.265246 -24.575794 2.1121881
14.865246 -24.575794 1.9991879
15.365246 -24.575794 1.926188
-19.834755 -24.675795 3.4081881
-18.834755 -24.675795 3.2271881
-17.934753 -24.675795 3.0661881
-17.034754 -24.675795 2.920188
-16.734755 -24.675795 2.844188
-16.234755 -24.675795 2.8001881
-13.934754 -24.675795 2.6281879
-13.034754 -24.675795 2.479188
-12.534754 -24.675795 2.442188
-11.234754 -24.675795 2.258188
-10.934754 -24.675795 2.258188
-9.9347544 -24.675795 2.225188
-6.2347541 -24.675795 2.9771881
-6.0347538 -24.675795 3.024188
-5.834754 -24.675795 3.0921879
-5.4347539 -24.675795 3.248188
-5.2347541 -24.675795 3.3061881
-3.7347541 -24.675795 3.663188
-3.534754 -24.675795 3.6941881
-1.034754 -24.675795 3.679188
-0.83475399 -24.675795 3.653188
