# .PCD v0.7 - Point Cloud Data file format
VERSION 0.7
FIELDS x y z
SIZE 4 4 4
TYPE F F F
COUNT 1 1 1
WIDTH 1526
HEIGHT 1
VIEWPOINT 0 0 0 1 0 0 0
POINTS 1526
DATA ascii
11.586399 8.3528023 -0.38540801
11.686399 8.3528023 -0.28140801
11.786399 8.3528023 -0.18340801
-18.913601 8.2528019 0.657592
-18.813601 8.2528019 0.65159202
-18.7136 8.2528019 0.63159198
-18.513601 8.2528019 0.63359201
-18.413601 8.2528019 0.62859201
-18.313601 8.2528019 0.61259198
-18.2136 8.2528019 0.58759201
-18.013601 8.2528019 0.50659198
-17.913601 8.2528019 0.53459197
-17.813601 8.2528019 0.55259198
-17.7136 8.2528019 0.56259203
-17.613602 8.2528019 0.54359198
-17.513601 8.2528019 0.53359199
-17.413601 8.2528019 0.50259203
-17.313601 8.2528019 0.48759201
-17.2136 8.2528019 0.47159201
-17.113602 8.2528019 0.45459199
-17.013601 8.2528019 0.442592
-16.913601 8.2528019 0.41059199
-16.813601 8.2528019 0.39659199
-16.7136 8.2528019 0.37859201
-16.613602 8.2528019 0.347592
-16.513601 8.2528019 0.33959201
-16.413601 8.2528019 0.31559199
-16.313601 8.2528019 0.298592
-16.2136 8.2528019 0.27159199
-16.113602 8.2528019 0.247592
-16.013601 8.2528019 0.22159199
-15.913601 8.2528019 0.189592
-15.813601 8.2528019 0.156592
-15.713601 8.2528019 0.15359201
-15.613601 8.2528019 0.13159201
-15.513601 8.2528019 0.104592
-15.413601 8.2528019 0.096592002
-15.313601 8.2528019 0.071592003
-15.213601 8.2528019 0.044592001
-15.113601 8.2528019 0.026591999
-15.013601 8.2528019 0.013592
-14.913601 8.2528019 -0.011408
-14.813601 8.2528019 -0.015408
-14.713601 8.2528019 -0.047408
-14.613601 8.2528019 -0.076407999
-14.513601 8.2528019 -0.082408004
-14.413601 8.2528019 -0.114408
-14.313601 8.2528019 -0.117408
-14.213601 8.2528019 -0.159408
-14.113601 8.2528019 -0.171408
-14.013601 8.2528019 -0.200408
-13.913601 8.2528019 -0.203408
-13.813601 8.2528019 -0.215408
-13.713601 8.2528019 -0.25040799
-13.613601 8.2528019 -0.26440799
-13.513601 8.2528019 -0.275408
-13.413601 8.2528019 -0.28540799
-13.313601 8.2528019 -0.32240799
-13.213601 8.2528019 -0.34340799
-13.113601 8.2528019 -0.35740799
-13.013601 8.2528019 -0.372408
-12.913601 8.2528019 -0.38340801
-12.813601 8.2528019 -0.39640799
-12.713601 8.2528019 -0.43440801
-12.613601 8.2528019 -0.442408
-12.513601 8.2528019 -0.45440799
-12.413601 8.2528019 -0.45940799
-12.313601 8.2528019 -0.47740799
-12.213601 8.2528019 -0.50140798
-12.113601 8.2528019 -0.50840801
-12.013601 8.2528019 -0.50640798
-11.913601 8.2528019 -0.52940798
-11.813601 8.2528019 -0.55440801
-11.713601 8.2528019 -0.564408
-11.613601 8.2528019 -0.55940801
-11.513601 8.2528019 -0.58540797
-11.413601 8.2528019 -0.57340801
-11.313601 8.2528019 -0.59640801
-11.213601 8.2528019 -0.606408
-11.113601 8.2528019 -0.61340803
-11.013601 8.2528019 -0.64140803
-10.813601 8.2528019 -0.63140798
-10.713601 8.2528019 -0.65440798
-10.613601 8.2528019 -0.65340799
-10.513601 8.2528019 -0.65940797
-10.413601 8.2528019 -0.67640799
-10.313601 8.2528019 -0.68340802
-10.213601 8.2528019 -0.685408
-10.113601 8.2528019 -0.68640798
-10.013601 8.2528019 -0.69240803
-9.9136009 8.2528019 -0.71640801
-9.8136005 8.2528019 -0.71340799
-9.7136011 8.2528019 -0.71140802
-9.6136007 8.2528019 -0.72040802
-9.5136013 8.2528019 -0.76740801
-9.4136009 8.2528019 -0.78040802
-9.2136011 8.2528019 -0.81840801
-9.1136007 8.2528019 -0.842408
-9.0136013 8.2528019 -0.83140802
-8.9136009 8.2528019 -0.85040802
-8.8136005 8.2528019 -0.861408
-8.7136011 8.2528019 -0.851408
-8.6136007 8.2528019 -0.86940801
-8.5136013 8.2528019 -0.88540798
-8.4136009 8.2528019 -0.89140803
-8.3136005 8.2528019 -0.91440803
-8.2136011 8.2528019 -0.893408
-8.1136007 8.2528019 -0.89740801
-8.0136013 8.2528019 -0.91340798
-7.9136009 8.2528019 -0.92340797
-7.813601 8.2528019 -0.91340798
-7.7136011 8.2528019 -0.92940801
-7.6136012 8.2528019 -0.92540801
-7.4136009 8.2528019 -0.90140802
-7.313601 8.2528019 -0.91140801
-7.2136011 8.2528019 -0.92240798
-7.1136012 8.2528019 -0.89640802
-7.0136008 8.2528019 -0.90640801
-6.9136009 8.2528019 -0.91140801
-6.813601 8.2528019 -0.90640801
-6.7136011 8.2528019 -0.907408
-6.6136012 8.2528019 -0.89740801
-6.5136008 8.2528019 -0.88240802
-6.4136009 8.2528019 -0.88840801
-6.313601 8.2528019 -0.86740798
-6.2136011 8.2528019 -0.86340803
-6.1136012 8.2528019 -0.84040803
-6.0136008 8.2528019 -0.84140801
-5.9136009 8.2528019 -0.84440798
-5.813601 8.2528019 -0.83940798
-5.7136011 8.2528019 -0.84540802
-5.6136012 8.2528019 -0.847408
-5.5136008 8.2528019 -0.85040802
-5.4136009 8.2528019 -0.84040803
-5.313601 8.2528019 -0.84040803
-5.2136011 8.2528019 -0.84540802
-5.1136012 8.2528019 -0.84440798
-5.0136008 8.2528019 -0.84040803
-4.9136009 8.2528019 -0.828408
-4.813601 8.2528019 -0.83840799
-4.7136011 8.2528019 -0.84040803
-4.6136012 8.2528019 -0.85040802
-4.5136008 8.2528019 -0.83940798
-4.4136009 8.2528019 -0.83540797
-4.313601 8.2528019 -0.83040798
-4.2136011 8.2528019 -0.82340801
-4.0136008 8.2528019 -0.83140802
-3.9136009 8.2528019 -0.84940797
-3.813601 8.2528019 -0.842408
-3.7136011 8.2528019 -0.85340798
-3.613601 8.2528019 -0.85740799
-3.5136011 8.2528019 -0.83440799
-3.4136009 8.2528019 -0.847408
-3.313601 8.2528019 -0.83840799
-3.2136011 8.2528019 -0.81140798
-3.113601 8.2528019 -0.80140799
-3.0136011 8.2528019 -0.78440797
-2.9136009 8.2528019 -0.79240799
-2.813601 8.2528019 -0.78640801
-2.7136011 8.2528019 -0.76440799
-2.613601 8.2528019 -0.740408
-2.5136011 8.2528019 -0.71340799
-2.4136009 8.2528019 -0.694408
-2.313601 8.2528019 -0.66740799
-2.2136011 8.2528019 -0.64140803
-2.113601 8.2528019 -0.62640798
-2.0136011 8.2528019 -0.60240799
-1.913601 8.2528019 -0.578408
-1.713601 8.2528019 -0.53040802
-1.613601 8.2528019 -0.50340801
-1.5136009 8.2528019 -0.453408
-1.413601 8.2528019 -0.41340801
-1.313601 8.2528019 -0.39640799
-1.213601 8.2528019 -0.40840799
-1.113601 8.2528019 -0.40840799
-1.0136009 8.2528019 -0.40540799
-0.91360098 8.2528019 -0.398408
-0.81360102 8.2528019 -0.40440801
-0.71360099 8.2528019 -0.40140799
-0.61360103 8.2528019 -0.38140801
-0.51360101 8.2528019 -0.37140799
-0.41360101 8.2528019 -0.35740799
-0.31360099 8.2528019 -0.35540801
-0.21360099 8.2528019 -0.34140801
-0.113601 8.2528019 -0.32940799
-0.013601 8.2528019 -0.307408
0.086398996 8.2528019 -0.296408
0.186399 8.2528019 -0.27640799
0.28639901 8.2528019 -0.282408
0.386399 8.2528019 -0.25740799
0.48639899 8.2528019 -0.23540799
0.58639902 8.2528019 -0.21940801
0.68639898 8.2528019 -0.187408
0.78639901 8.2528019 -0.172408
0.88639897 8.2528019 -0.145408
0.98639899 8.2528019 -0.126408
1.086399 8.2528019 -0.115408
1.186399 8.2528019 -0.088408001
1.286399 8.2528019 -0.080407999
1.386399 8.2528019 -0.054407999
1.4863991 8.2528019 -0.023407999
1.586399 8.2528019 -0.011408
1.686399 8.2528019 0.021592
1.786399 8.2528019 0.026591999
1.886399 8.2528019 0.051592
1.9863991 8.2528019 0.089592002
2.0863991 8.2528019 0.118592
2.186399 8.2528019 0.145592
2.2863989 8.2528019 0.167592
2.386399 8.2528019 0.19859201
2.4863989 8.2528019 0.24259201
2.5863991 8.2528019 0.28359199
2.686399 8.2528019 0.310592
2.7863989 8.2528019 0.33759201
2.886399 8.2528019 0.37159199
2.9863989 8.2528019 0.39759201
3.0863991 8.2528019 0.42659199
3.186399 8.2528019 0.46859199
3.2863989 8.2528019 0.50259203
3.386399 8.2528019 0.53159201
3.4863989 8.2528019 0.54959202
3.5863991 8.2528019 0.60259199
3.686399 8.2528019 0.63659197
3.7863989 8.2528019 0.66859198
3.886399 8.2528019 0.71559203
3.9863989 8.2528019 0.740592
4.0863991 8.2528019 0.773592
4.186399 8.2528019 0.81759202
4.2863989 8.2528019 0.85959202
4.3863988 8.2528019 0.944592
4.4863992 8.2528019 0.97759199
4.5863991 8.2528019 0.98859203
4.686399 8.2528019 1.041592
4.7863989 8.2528019 1.0735919
4.8863988 8.2528019 1.113592
4.9863992 8.2528019 1.165592
5.0863991 8.2528019 1.220592
5.186399 8.2528019 1.260592
5.2863989 8.2528019 1.301592
5.3863988 8.2528019 1.350592
5.4863992 8.2528019 1.347592
5.5863991 8.2528019 1.306592
5.686399 8.2528019 1.285592
5.7863989 8.2528019 1.251592
5.8863988 8.2528019 1.227592
5.9863992 8.2528019 1.209592
6.0863991 8.2528019 1.172592
6.186399 8.2528019 1.140592
6.2863989 8.2528019 1.1115921
6.3863988 8.2528019 1.095592
6.4863992 8.2528019 1.0655921
6.5863991 8.2528019 1.056592
6.686399 8.2528019 1.043592
6.7863989 8.2528019 1.023592
6.8863988 8.2528019 1.007592
6.9863992 8.2528019 0.99959201
7.0863991 8.2528019 0.97459197
7.186399 8.2528019 0.95059198
7.2863989 8.2528019 0.935592
7.3863988 8.2528019 0.92259198
7.4863992 8.2528019 0.92059201
7.5863991 8.2528019 0.89959198
7.686399 8.2528019 0.87359202
7.7863989 8.2528019 0.870592
7.8863988 8.2528019 0.85759199
7.9863992 8.2528019 0.85359198
8.0863991 8.2528019 0.83059198
8.1863995 8.2528019 0.81859201
8.2863989 8.2528019 0.80359203
8.3863993 8.2528019 0.77859199
8.4863987 8.2528019 0.77559203
8.5863991 8.2528019 0.768592
8.6863995 8.2528019 0.740592
8.7863989 8.2528019 0.73059201
8.8863993 8.2528019 0.69559199
8.9863987 8.2528019 0.69259202
9.0863991 8.2528019 0.671592
9.1863995 8.2528019 0.60759199
9.2863989 8.2528019 0.57759202
9.3863993 8.2528019 0.52459198
9.4863987 8.2528019 0.51459199
9.5863991 8.2528019 0.472592
9.6863995 8.2528019 0.40359199
9.7863989 8.2528019 0.347592
9.8863993 8.2528019 0.28359199
9.9863987 8.2528019 0.222592
10.086399 8.2528019 0.13259199
10.186399 8.2528019 0.067592002
10.286399 8.2528019 -0.0064079999
10.386399 8.2528019 -0.072407998
10.486399 8.2528019 -0.17540801
10.586399 8.2528019 -0.25840801
10.686399 8.2528019 -0.33640799
10.786399 8.2528019 -0.44040799
10.886399 8.2528019 -0.47540799
10.986399 8.2528019 -0.481408
11.086399 8.2528019 -0.479408
11.186399 8.2528019 -0.460408
11.286399 8.2528019 -0.442408
11.386399 8.2528019 -0.43440801
11.486399 8.2528019 -0.41040799
11.586399 8.2528019 -0.37640801
11.686399 8.2528019 -0.33840799
11.786399 8.2528019 -0.28740799
11.886399 8.2528019 -0.27140799
-20.813601 8.1528025 0.89259201
-20.613602 8.1528025 0.88259202
-20.513601 8.1528025 0.83159202
-20.413601 8.1528025 0.79959202
-20.113602 8.1528025 0.80459201
-20.013601 8.1528025 0.78059202
-19.913601 8.1528025 0.75559199
-19.613602 8.1528025 0.74459201
-19.413601 8.1528025 0.72859198
-19.313601 8.1528025 0.694592
-19.013601 8.1528025 0.70159203
-18.913601 8.1528025 0.67459202
-18.813601 8.1528025 0.666592
-18.7136 8.1528025 0.64959198
-18.613602 8.1528025 0.65059203
-18.513601 8.1528025 0.652592
-18.413601 8.1528025 0.64659202
-18.313601 8.1528025 0.63559198
-18.2136 8.1528025 0.61859202
-18.113602 8.1528025 0.55459201
-18.013601 8.1528025 0.546592
-17.913601 8.1528025 0.56859201
-17.813601 8.1528025 0.57559198
-17.7136 8.1528025 0.569592
-17.613602 8.1528025 0.569592
-17.513601 8.1528025 0.55959201
-17.413601 8.1528025 0.53059202
-17.313601 8.1528025 0.51059198
-17.2136 8.1528025 0.49859199
-17.113602 8.1528025 0.48059201
-17.013601 8.1528025 0.451592
-16.913601 8.1528025 0.44959199
-16.813601 8.1528025 0.43359199
-16.7136 8.1528025 0.416592
-16.613602 8.1528025 0.38259199
-16.513601 8.1528025 0.36759201
-16.413601 8.1528025 0.35059199
-16.313601 8.1528025 0.32059199
-16.2136 8.1528025 0.30059201
-16.113602 8.1528025 0.263592
-16.013601 8.1528025 0.25659201
-15.913601 8.1528025 0.226592
-15.813601 8.1528025 0.200592
-15.713601 8.1528025 0.193592
-15.613601 8.1528025 0.16159201
-15.513601 8.1528025 0.145592
-15.413601 8.1528025 0.121592
-15.313601 8.1528025 0.104592
-15.213601 8.1528025 0.078592002
-15.113601 8.1528025 0.065591998
-15.013601 8.1528025 0.046592001
-14.913601 8.1528025 0.024591999
-14.813601 8.1528025 0.0055920002
-14.713601 8.1528025 -0.016408
-14.613601 8.1528025 -0.036408
-14.513601 8.1528025 -0.048408002
-14.413601 8.1528025 -0.073408
-14.313601 8.1528025 -0.093408003
-14.113601 8.1528025 -0.120408
-14.013601 8.1528025 -0.143408
-13.913601 8.1528025 -0.16140801
-13.813601 8.1528025 -0.187408
-13.713601 8.1528025 -0.195408
-13.513601 8.1528025 -0.233408
-13.413601 8.1528025 -0.25040799
-13.313601 8.1528025 -0.266408
-13.113601 8.1528025 -0.291408
-13.013601 8.1528025 -0.33640799
-12.913601 8.1528025 -0.333408
-12.813601 8.1528025 -0.35240799
-12.713601 8.1528025 -0.36640799
-12.613601 8.1528025 -0.393408
-12.513601 8.1528025 -0.40540799
-12.413601 8.1528025 -0.407408
-12.313601 8.1528025 -0.430408
-12.113601 8.1528025 -0.45940799
-12.013601 8.1528025 -0.47140801
-11.913601 8.1528025 -0.495408
-11.713601 8.1528025 -0.495408
-11.613601 8.1528025 -0.51540798
-11.513601 8.1528025 -0.54240799
-11.413601 8.1528025 -0.53740799
-11.313601 8.1528025 -0.55340803
-11.113601 8.1528025 -0.56840801
-10.913601 8.1528025 -0.58540797
-10.813601 8.1528025 -0.59840798
-10.613601 8.1528025 -0.620408
-10.513601 8.1528025 -0.63140798
-10.413601 8.1528025 -0.63240802
-10.313601 8.1528025 -0.63640797
-10.213601 8.1528025 -0.652408
-10.113601 8.1528025 -0.652408
-10.013601 8.1528025 -0.65340799
-9.9136009 8.1528025 -0.65840799
-9.8136005 8.1528025 -0.67240798
-9.7136011 8.1528025 -0.67440802
-9.6136007 8.1528025 -0.69140798
-9.4136009 8.1528025 -0.74240798
-9.2136011 8.1528025 -0.79540801
-9.1136007 8.1528025 -0.805408
-9.0136013 8.1528025 -0.81740803
-8.9136009 8.1528025 -0.810408
-8.8136005 8.1528025 -0.80640799
-8.7136011 8.1528025 -0.81340802
-8.6136007 8.1528025 -0.84440798
-8.5136013 8.1528025 -0.85040802
-8.4136009 8.1528025 -0.851408
-8.3136005 8.1528025 -0.85840797
-8.2136011 8.1528025 -0.85740799
-8.1136007 8.1528025 -0.86740798
-8.0136013 8.1528025 -0.879408
-7.9136009 8.1528025 -0.88240802
-7.813601 8.1528025 -0.87240797
-7.7136011 8.1528025 -0.87240797
-7.6136012 8.1528025 -0.88240802
-7.5136008 8.1528025 -0.87540799
-7.4136009 8.1528025 -0.87740803
-7.313601 8.1528025 -0.87740803
-7.2136011 8.1528025 -0.856408
-7.1136012 8.1528025 -0.85240799
-7.0136008 8.1528025 -0.84440798
-6.813601 8.1528025 -0.851408
-6.6136012 8.1528025 -0.84040803
-6.5136008 8.1528025 -0.83440799
-6.4136009 8.1528025 -0.81340802
-6.313601 8.1528025 -0.82540798
-6.2136011 8.1528025 -0.81640798
-6.1136012 8.1528025 -0.805408
-6.0136008 8.1528025 -0.80040801
-5.9136009 8.1528025 -0.79440802
-5.813601 8.1528025 -0.791408
-5.7136011 8.1528025 -0.79540801
-5.5136008 8.1528025 -0.78140801
-5.4136009 8.1528025 -0.79740798
-5.2136011 8.1528025 -0.78140801
-5.0136008 8.1528025 -0.79940802
-4.9136009 8.1528025 -0.80840802
-4.813601 8.1528025 -0.80140799
-4.7136011 8.1528025 -0.791408
-4.5136008 8.1528025 -0.78540802
-4.313601 8.1528025 -0.773408
-4.2136011 8.1528025 -0.77840799
-4.1136012 8.1528025 -0.777408
-4.0136008 8.1528025 -0.791408
-3.9136009 8.1528025 -0.80040801
-3.813601 8.1528025 -0.81640798
-3.7136011 8.1528025 -0.805408
-3.613601 8.1528025 -0.80040801
-3.5136011 8.1528025 -0.796408
-3.4136009 8.1528025 -0.80140799
-3.313601 8.1528025 -0.77940798
-3.2136011 8.1528025 -0.77440798
-3.113601 8.1528025 -0.76740801
-3.0136011 8.1528025 -0.75240803
-2.813601 8.1528025 -0.72940803
-2.7136011 8.1528025 -0.71340799
-2.613601 8.1528025 -0.70140803
-2.5136011 8.1528025 -0.68140799
-2.4136009 8.1528025 -0.65840799
-2.2136011 8.1528025 -0.62440801
-2.113601 8.1528025 -0.59140801
-2.0136011 8.1528025 -0.560408
-1.813601 8.1528025 -0.509408
-1.613601 8.1528025 -0.45540801
-1.5136009 8.1528025 -0.421408
-1.413601 8.1528025 -0.38340801
-1.313601 8.1528025 -0.38840801
-1.213601 8.1528025 -0.38040799
-1.113601 8.1528025 -0.37640801
-1.0136009 8.1528025 -0.36940801
-0.91360098 8.1528025 -0.37140799
-0.81360102 8.1528025 -0.35340801
-0.71360099 8.1528025 -0.354408
-0.61360103 8.1528025 -0.340408
-0.51360101 8.1528025 -0.33240801
-0.41360101 8.1528025 -0.310408
-0.31360099 8.1528025 -0.32440799
-0.21360099 8.1528025 -0.289408
-0.113601 8.1528025 -0.28540799
-0.013601 8.1528025 -0.268408
0.186399 8.1528025 -0.25040799
0.28639901 8.1528025 -0.215408
0.386399 8.1528025 -0.217408
0.48639899 8.1528025 -0.210408
0.58639902 8.1528025 -0.187408
0.68639898 8.1528025 -0.15540799
0.78639901 8.1528025 -0.127408
0.88639897 8.1528025 -0.095408
0.98639899 8.1528025 -0.071408004
1.186399 8.1528025 -0.061407998
1.286399 8.1528025 -0.020408001
1.4863991 8.1528025 0.010592
1.586399 8.1528025 0.051592
1.686399 8.1528025 0.055592
1.786399 8.1528025 0.081592001
1.886399 8.1528025 0.106592
1.9863991 8.1528025 0.14759199
2.0863991 8.1528025 0.16259199
2.186399 8.1528025 0.203592
2.386399 8.1528025 0.25659201
2.4863989 8.1528025 0.282592
2.5863991 8.1528025 0.321592
2.686399 8.1528025 0.35959199
2.7863989 8.1528025 0.388592
2.886399 8.1528025 0.414592
2.9863989 8.1528025 0.42059201
3.0863991 8.1528025 0.45959201
3.186399 8.1528025 0.49359199
3.2863989 8.1528025 0.54959202
3.386399 8.1528025 0.57559198
3.4863989 8.1528025 0.58759201
3.5863991 8.1528025 0.63659197
3.686399 8.1528025 0.67459202
3.7863989 8.1528025 0.70259202
3.886399 8.1528025 0.75659198
3.9863989 8.1528025 0.78159201
4.0863991 8.1528025 0.83159202
4.186399 8.1528025 0.87259197
4.2863989 8.1528025 0.90159202
4.3863988 8.1528025 0.953592
4.4863992 8.1528025 1.003592
4.5863991 8.1528025 1.058592
4.686399 8.1528025 1.095592
4.7863989 8.1528025 1.135592
4.8863988 8.1528025 1.1985919
4.9863992 8.1528025 1.234592
5.0863991 8.1528025 1.279592
5.186399 8.1528025 1.3385921
5.2863989 8.1528025 1.368592
5.3863988 8.1528025 1.392592
5.4863992 8.1528025 1.377592
5.5863991 8.1528025 1.366592
5.686399 8.1528025 1.331592
5.7863989 8.1528025 1.292592
5.8863988 8.1528025 1.266592
5.9863992 8.1528025 1.224592
6.0863991 8.1528025 1.205592
6.186399 8.1528025 1.173592
6.2863989 8.1528025 1.130592
6.3863988 8.1528025 1.118592
6.4863992 8.1528025 1.091592
6.5863991 8.1528025 1.071592
6.686399 8.1528025 1.058592
6.7863989 8.1528025 1.036592
6.8863988 8.1528025 1.0225919
6.9863992 8.1528025 1.024592
7.0863991 8.1528025 1.000592
7.186399 8.1528025 0.99359202
7.2863989 8.1528025 0.97559202
7.3863988 8.1528025 0.96459198
7.4863992 8.1528025 0.95259202
7.5863991 8.1528025 0.94159198
7.686399 8.1528025 0.91859198
7.7863989 8.1528025 0.89559197
7.8863988 8.1528025 0.89059198
7.9863992 8.1528025 0.87859201
8.0863991 8.1528025 0.85059202
8.1863995 8.1528025 0.85559201
8.2863989 8.1528025 0.84859198
8.3863993 8.1528025 0.83659202
8.4863987 8.1528025 0.80759197
8.5863991 8.1528025 0.77959198
8.6863995 8.1528025 0.78659201
8.7863989 8.1528025 0.768592
8.8863993 8.1528025 0.75059199
8.9863987 8.1528025 0.72359198
9.0863991 8.1528025 0.708592
9.1863995 8.1528025 0.66859198
9.2863989 8.1528025 0.62859201
9.3863993 8.1528025 0.58159202
9.4863987 8.1528025 0.54359198
9.5863991 8.1528025 0.51259202
9.6863995 8.1528025 0.48259199
9.7863989 8.1528025 0.39959201
9.8863993 8.1528025 0.35959199
9.9863987 8.1528025 0.29559201
10.086399 8.1528025 0.233592
10.186399 8.1528025 0.16259199
10.286399 8.1528025 0.090591997
10.386399 8.1528025 0.0025919999
10.486399 8.1528025 -0.059408002
10.586399 8.1528025 -0.126408
10.686399 8.1528025 -0.193408
10.886399 8.1528025 -0.31540799
10.986399 8.1528025 -0.416408
11.086399 8.1528025 -0.432408
11.186399 8.1528025 -0.42040801
11.286399 8.1528025 -0.40840799
11.386399 8.1528025 -0.39240801
11.486399 8.1528025 -0.37640801
11.586399 8.1528025 -0.340408
11.686399 8.1528025 -0.31340799
11.786399 8.1528025 -0.27140799
11.886399 8.1528025 -0.20640799
-21.2136 8.0528021 0.65559202
-20.913601 8.0528021 0.94159198
-20.813601 8.0528021 0.89059198
-20.7136 8.0528021 0.89159203
-20.613602 8.0528021 0.89459199
-20.513601 8.0528021 0.85259199
-20.413601 8.0528021 0.82459199
-20.313601 8.0528021 0.82659203
-20.2136 8.0528021 0.82459199
-20.113602 8.0528021 0.81759202
-20.013601 8.0528021 0.79959202
-19.913601 8.0528021 0.78559202
-19.813601 8.0528021 0.78459197
-19.7136 8.0528021 0.77459198
-19.613602 8.0528021 0.76759201
-19.513601 8.0528021 0.75659198
-19.413601 8.0528021 0.74759197
-19.313601 8.0528021 0.71659201
-19.2136 8.0528021 0.70759201
-19.113602 8.0528021 0.71259201
-19.013601 8.0528021 0.71359199
-18.913601 8.0528021 0.69059199
-18.813601 8.0528021 0.680592
-18.7136 8.0528021 0.66759199
-18.613602 8.0528021 0.66859198
-18.513601 8.0528021 0.671592
-18.413601 8.0528021 0.66359198
-18.313601 8.0528021 0.657592
-18.2136 8.0528021 0.648592
-18.113602 8.0528021 0.592592
-18.013601 8.0528021 0.58559197
-17.813601 8.0528021 0.62359202
-17.7136 8.0528021 0.60359198
-17.613602 8.0528021 0.60259199
-17.513601 8.0528021 0.57359201
-17.413601 8.0528021 0.57359201
-17.313601 8.0528021 0.55459201
-17.2136 8.0528021 0.53459197
-17.113602 8.0528021 0.50759202
-17.013601 8.0528021 0.49859199
-16.913601 8.0528021 0.47759199
-16.813601 8.0528021 0.474592
-16.7136 8.0528021 0.44359201
-16.613602 8.0528021 0.43359199
-16.513601 8.0528021 0.41559201
-16.413601 8.0528021 0.38959199
-16.313601 8.0528021 0.365592
-16.2136 8.0528021 0.34359199
-16.113602 8.0528021 0.321592
-16.013601 8.0528021 0.28859201
-15.913601 8.0528021 0.27259201
-15.813601 8.0528021 0.25659201
-15.713601 8.0528021 0.230592
-15.613601 8.0528021 0.210592
-15.513601 8.0528021 0.194592
-15.413601 8.0528021 0.16959199
-15.313601 8.0528021 0.15459201
-15.213601 8.0528021 0.134592
-15.113601 8.0528021 0.110592
-14.813601 8.0528021 0.087591998
-14.613601 8.0528021 0.015592
-14.513601 8.0528021 -0.018408
-14.413601 8.0528021 -0.025408
-14.313601 8.0528021 -0.045407999
-14.213601 8.0528021 -0.059408002
-14.113601 8.0528021 -0.084408
-14.013601 8.0528021 -0.104408
-13.813601 8.0528021 -0.15440799
-13.713601 8.0528021 -0.158408
-13.613601 8.0528021 -0.18340801
-13.513601 8.0528021 -0.189408
-13.413601 8.0528021 -0.210408
-13.313601 8.0528021 -0.22840799
-13.213601 8.0528021 -0.25540799
-13.113601 8.0528021 -0.275408
-12.913601 8.0528021 -0.30240801
-12.713601 8.0528021 -0.326408
-12.613601 8.0528021 -0.33740801
-12.513601 8.0528021 -0.36440799
-12.413601 8.0528021 -0.363408
-12.313601 8.0528021 -0.36640799
-12.213601 8.0528021 -0.39740801
-12.013601 8.0528021 -0.42040801
-11.713601 8.0528021 -0.44040799
-11.413601 8.0528021 -0.479408
-11.213601 8.0528021 -0.497408
-11.013601 8.0528021 -0.53740799
-10.913601 8.0528021 -0.541408
-10.813601 8.0528021 -0.541408
-10.613601 8.0528021 -0.56240797
-10.413601 8.0528021 -0.592408
-10.313601 8.0528021 -0.58940798
-10.213601 8.0528021 -0.59840798
-10.113601 8.0528021 -0.60740799
-10.013601 8.0528021 -0.61440802
-9.9136009 8.0528021 -0.62540799
-9.8136005 8.0528021 -0.61740798
-9.6136007 8.0528021 -0.63640797
-9.5136013 8.0528021 -0.652408
-9.4136009 8.0528021 -0.68140799
-9.2136011 8.0528021 -0.73040801
-9.0136013 8.0528021 -0.76940799
-8.9136009 8.0528021 -0.75840801
-8.8136005 8.0528021 -0.77840799
-8.7136011 8.0528021 -0.78640801
-8.5136013 8.0528021 -0.810408
-8.4136009 8.0528021 -0.81740803
-8.3136005 8.0528021 -0.82340801
-8.2136011 8.0528021 -0.82040799
-8.1136007 8.0528021 -0.81340802
-7.9136009 8.0528021 -0.84440798
-7.813601 8.0528021 -0.856408
-7.7136011 8.0528021 -0.85340798
-7.6136012 8.0528021 -0.856408
-7.5136008 8.0528021 -0.84040803
-7.4136009 8.0528021 -0.84040803
-7.313601 8.0528021 -0.83140802
-7.2136011 8.0528021 -0.833408
-7.1136012 8.0528021 -0.828408
-7.0136008 8.0528021 -0.833408
-6.9136009 8.0528021 -0.79940802
-6.813601 8.0528021 -0.83040798
-6.7136011 8.0528021 -0.82240802
-6.6136012 8.0528021 -0.814408
-6.5136008 8.0528021 -0.796408
-6.4136009 8.0528021 -0.791408
-6.313601 8.0528021 -0.777408
-6.2136011 8.0528021 -0.77540803
-6.1136012 8.0528021 -0.77440798
-6.0136008 8.0528021 -0.759408
-5.9136009 8.0528021 -0.75040799
-5.813601 8.0528021 -0.73440802
-5.6136012 8.0528021 -0.740408
-5.5136008 8.0528021 -0.75040799
-5.4136009 8.0528021 -0.75240803
-5.313601 8.0528021 -0.736408
-5.2136011 8.0528021 -0.75040799
-5.1136012 8.0528021 -0.75140798
-5.0136008 8.0528021 -0.75140798
-4.7136011 8.0528021 -0.73540801
-4.6136012 8.0528021 -0.73440802
-4.5136008 8.0528021 -0.74740797
-4.4136009 8.0528021 -0.736408
-4.313601 8.0528021 -0.75240803
-4.2136011 8.0528021 -0.73740798
-4.1136012 8.0528021 -0.73940802
-4.0136008 8.0528021 -0.736408
-3.813601 8.0528021 -0.73740798
-3.7136011 8.0528021 -0.759408
-3.613601 8.0528021 -0.75240803
-3.5136011 8.0528021 -0.76440799
-3.4136009 8.0528021 -0.75340801
-3.313601 8.0528021 -0.759408
-3.2136011 8.0528021 -0.73940802
-3.113601 8.0528021 -0.72940803
-3.0136011 8.0528021 -0.71440798
-2.813601 8.0528021 -0.689408
-2.7136011 8.0528021 -0.67040801
-2.613601 8.0528021 -0.66440803
-2.5136011 8.0528021 -0.63940799
-2.4136009 8.0528021 -0.62240797
-2.2136011 8.0528021 -0.56840801
-2.0136011 8.0528021 -0.51940799
-1.913601 8.0528021 -0.49140799
-1.813601 8.0528021 -0.46440801
-1.713601 8.0528021 -0.430408
-1.5136009 8.0528021 -0.38040799
-1.413601 8.0528021 -0.377408
-1.313601 8.0528021 -0.37540799
-1.213601 8.0528021 -0.36640799
-1.113601 8.0528021 -0.37140799
-0.91360098 8.0528021 -0.35240799
-0.81360102 8.0528021 -0.34440801
-0.71360099 8.0528021 -0.33640799
-0.61360103 8.0528021 -0.32740799
-0.51360101 8.0528021 -0.32240799
-0.41360101 8.0528021 -0.30940801
-0.31360099 8.0528021 -0.307408
-0.113601 8.0528021 -0.26440799
-0.013601 8.0528021 -0.25740799
0.086398996 8.0528021 -0.231408
0.28639901 8.0528021 -0.19740801
0.48639899 8.0528021 -0.16040801
0.58639902 8.0528021 -0.13240799
0.68639898 8.0528021 -0.136408
0.78639901 8.0528021 -0.103408
0.88639897 8.0528021 -0.073408
1.086399 8.0528021 -0.025408
1.286399 8.0528021 0.022592001
1.4863991 8.0528021 0.049592
1.586399 8.0528021 0.068591997
1.686399 8.0528021 0.101592
1.786399 8.0528021 0.128592
1.886399 8.0528021 0.134592
1.9863991 8.0528021 0.182592
2.0863991 8.0528021 0.22159199
2.186399 8.0528021 0.247592
2.2863989 8.0528021 0.277592
2.386399 8.0528021 0.289592
2.4863989 8.0528021 0.33859199
2.5863991 8.0528021 0.358592
2.686399 8.0528021 0.377592
2.7863989 8.0528021 0.42759201
2.886399 8.0528021 0.46359199
2.9863989 8.0528021 0.488592
3.0863991 8.0528021 0.513592
3.186399 8.0528021 0.569592
3.2863989 8.0528021 0.59559202
3.4863989 8.0528021 0.680592
3.5863991 8.0528021 0.689592
3.686399 8.0528021 0.73559201
3.7863989 8.0528021 0.80159199
3.9863989 8.0528021 0.80659199
4.0863991 8.0528021 0.89159203
4.186399 8.0528021 0.92359197
4.2863989 8.0528021 0.95259202
4.3863988 8.0528021 1.010592
4.4863992 8.0528021 1.0655921
4.5863991 8.0528021 1.091592
4.686399 8.0528021 1.166592
4.7863989 8.0528021 1.1985919
4.8863988 8.0528021 1.253592
4.9863992 8.0528021 1.289592
5.0863991 8.0528021 1.347592
5.186399 8.0528021 1.382592
5.3863988 8.0528021 1.426592
5.4863992 8.0528021 1.394592
5.5863991 8.0528021 1.364592
5.686399 8.0528021 1.347592
5.7863989 8.0528021 1.322592
5.8863988 8.0528021 1.290592
5.9863992 8.0528021 1.267592
6.0863991 8.0528021 1.237592
6.186399 8.0528021 1.212592
6.2863989 8.0528021 1.1855921
6.3863988 8.0528021 1.165592
6.4863992 8.0528021 1.1245919
6.5863991 8.0528021 1.1115921
6.686399 8.0528021 1.105592
6.7863989 8.0528021 1.0735919
6.8863988 8.0528021 1.058592
6.9863992 8.0528021 1.051592
7.0863991 8.0528021 1.039592
7.186399 8.0528021 1.0225919
7.2863989 8.0528021 1.017592
7.3863988 8.0528021 0.995592
7.4863992 8.0528021 0.98959202
7.5863991 8.0528021 0.96159202
7.686399 8.0528021 0.94759202
7.7863989 8.0528021 0.94559199
7.8863988 8.0528021 0.92059201
7.9863992 8.0528021 0.90359199
8.0863991 8.0528021 0.90859199
8.1863995 8.0528021 0.88959199
8.2863989 8.0528021 0.870592
8.3863993 8.0528021 0.87259197
8.4863987 8.0528021 0.856592
8.5863991 8.0528021 0.84159201
8.6863995 8.0528021 0.814592
8.7863989 8.0528021 0.79459202
8.8863993 8.0528021 0.78159201
8.9863987 8.0528021 0.768592
9.0863991 8.0528021 0.73959202
9.2863989 8.0528021 0.71159202
9.3863993 8.0528021 0.65959197
9.4863987 8.0528021 0.60459203
9.5863991 8.0528021 0.564592
9.6863995 8.0528021 0.53159201
9.8863993 8.0528021 0.458592
10.086399 8.0528021 0.33659199
10.286399 8.0528021 0.203592
10.486399 8.0528021 0.075591996
10.686399 8.0528021 -0.048408002
10.886399 8.0528021 -0.15440799
11.086399 8.0528021 -0.239408
11.186399 8.0528021 -0.307408
11.386399 8.0528021 -0.32940799
11.686399 8.0528021 -0.27140799
11.786399 8.0528021 -0.226408
11.886399 8.0528021 -0.18340801
11.986399 8.0528021 -0.066408001
12.086399 8.0528021 0.035592001
12.186399 8.0528021 0.150592
12.286399 8.0528021 0.33159199
-21.2136 7.9528022 0.66159201
-21.113602 7.9528022 0.72559202
-21.013601 7.9528022 0.83759201
-20.813601 7.9528022 0.88959199
-20.7136 7.9528022 0.89459199
-20.613602 7.9528022 0.90559202
-20.513601 7.9528022 0.87359202
-20.413601 7.9528022 0.84859198
-20.313601 7.9528022 0.84559202
-20.2136 7.9528022 0.83959198
-20.113602 7.9528022 0.83159202
-20.013601 7.9528022 0.819592
-19.913601 7.9528022 0.81559199
-19.813601 7.9528022 0.80659199
-19.7136 7.9528022 0.79859197
-19.613602 7.9528022 0.79059201
-19.513601 7.9528022 0.77559203
-19.413601 7.9528022 0.76759201
-19.313601 7.9528022 0.73959202
-19.2136 7.9528022 0.731592
-19.113602 7.9528022 0.73259199
-19.013601 7.9528022 0.726592
-18.913601 7.9528022 0.70759201
-18.813601 7.9528022 0.69559199
-18.7136 7.9528022 0.685592
-18.613602 7.9528022 0.69059199
-18.513601 7.9528022 0.68259197
-18.413601 7.9528022 0.67559201
-18.313601 7.9528022 0.67559201
-18.2136 7.9528022 0.67059201
-18.013601 7.9528022 0.66359198
-17.913601 7.9528022 0.65659201
-17.813601 7.9528022 0.64159203
-17.7136 7.9528022 0.61959201
-17.613602 7.9528022 0.61459202
-17.513601 7.9528022 0.60359198
-17.413601 7.9528022 0.58859199
-17.313601 7.9528022 0.564592
-17.2136 7.9528022 0.53859198
-17.113602 7.9528022 0.54459202
-17.013601 7.9528022 0.53059202
-16.913601 7.9528022 0.49459201
-16.813601 7.9528022 0.49159199
-16.7136 7.9528022 0.465592
-16.613602 7.9528022 0.446592
-16.513601 7.9528022 0.435592
-16.413601 7.9528022 0.41159201
-16.313601 7.9528022 0.38259199
-16.2136 7.9528022 0.377592
-16.113602 7.9528022 0.354592
-16.013601 7.9528022 0.33659199
-15.913601 7.9528022 0.303592
-15.713601 7.9528022 0.25859201
-15.613601 7.9528022 0.24259201
-15.513601 7.9528022 0.222592
-15.413601 7.9528022 0.225592
-15.313601 7.9528022 0.180592
-15.213601 7.9528022 0.173592
-15.013601 7.9528022 0.13159201
-14.913601 7.9528022 0.112592
-14.713601 7.9528022 0.084592
-14.613601 7.9528022 0.071592003
-14.413601 7.9528022 0.016592
-14.313601 7.9528022 -0.012408
-14.113601 7.9528022 -0.045407999
-13.913601 7.9528022 -0.069408
-13.713601 7.9528022 -0.117408
-13.613601 7.9528022 -0.16140801
-13.513601 7.9528022 -0.156408
-13.413601 7.9528022 -0.17740799
-13.313601 7.9528022 -0.194408
-13.213601 7.9528022 -0.210408
-13.013601 7.9528022 -0.232408
-12.913601 7.9528022 -0.25340801
-12.713601 7.9528022 -0.28640801
-12.513601 7.9528022 -0.319408
-12.413601 7.9528022 -0.321408
-12.313601 7.9528022 -0.32940799
-12.113601 7.9528022 -0.36840799
-11.913601 7.9528022 -0.37640801
-11.813601 7.9528022 -0.40840799
-11.613601 7.9528022 -0.430408
-11.413601 7.9528022 -0.442408
-11.313601 7.9528022 -0.47040799
-11.213601 7.9528022 -0.46640801
-11.113601 7.9528022 -0.48240799
-11.013601 7.9528022 -0.49340799
-10.913601 7.9528022 -0.509408
-10.813601 7.9528022 -0.52040797
-10.713601 7.9528022 -0.52140802
-10.513601 7.9528022 -0.53440797
-10.413601 7.9528022 -0.55240798
-10.313601 7.9528022 -0.54340798
-10.213601 7.9528022 -0.56740803
-10.113601 7.9528022 -0.56840801
-10.013601 7.9528022 -0.57440799
-9.9136009 7.9528022 -0.59640801
-9.8136005 7.9528022 -0.58940798
-9.7136011 7.9528022 -0.58740801
-9.6136007 7.9528022 -0.597408
-9.4136009 7.9528022 -0.63540798
-9.3136005 7.9528022 -0.65840799
-9.2136011 7.9528022 -0.68440801
-9.1136007 7.9528022 -0.717408
-8.9136009 7.9528022 -0.72440797
-8.8136005 7.9528022 -0.73040801
-8.7136011 7.9528022 -0.72040802
-8.6136007 7.9528022 -0.74140799
-8.4136009 7.9528022 -0.76940799
-8.2136011 7.9528022 -0.777408
-8.1136007 7.9528022 -0.791408
-8.0136013 7.9528022 -0.80040801
-7.813601 7.9528022 -0.79440802
-7.5136008 7.9528022 -0.81240797
-7.4136009 7.9528022 -0.80740798
-7.313601 7.9528022 -0.777408
-7.2136011 7.9528022 -0.78440797
-7.1136012 7.9528022 -0.80140799
-7.0136008 7.9528022 -0.78040802
-6.9136009 7.9528022 -0.78540802
-6.813601 7.9528022 -0.76240802
-6.6136012 7.9528022 -0.76240802
-6.5136008 7.9528022 -0.75340801
-6.4136009 7.9528022 -0.75840801
-6.313601 7.9528022 -0.74140799
-6.1136012 7.9528022 -0.71440798
-6.0136008 7.9528022 -0.71240801
-5.9136009 7.9528022 -0.70140803
-5.813601 7.9528022 -0.69740802
-5.7136011 7.9528022 -0.708408
-5.6136012 7.9528022 -0.694408
-5.4136009 7.9528022 -0.68640798
-5.313601 7.9528022 -0.71240801
-5.2136011 7.9528022 -0.70640802
-5.1136012 7.9528022 -0.703408
-5.0136008 7.9528022 -0.71240801
-4.9136009 7.9528022 -0.69740802
-4.813601 7.9528022 -0.70740801
-4.7136011 7.9528022 -0.72340798
-4.6136012 7.9528022 -0.71240801
-4.5136008 7.9528022 -0.70140803
-4.4136009 7.9528022 -0.703408
-4.313601 7.9528022 -0.70140803
-4.2136011 7.9528022 -0.70940799
-4.1136012 7.9528022 -0.69140798
-4.0136008 7.9528022 -0.69540799
-3.9136009 7.9528022 -0.69740802
-3.813601 7.9528022 -0.69140798
-3.613601 7.9528022 -0.70540798
-3.5136011 7.9528022 -0.70140803
-3.313601 7.9528022 -0.70640802
-3.2136011 7.9528022 -0.69540799
-3.113601 7.9528022 -0.680408
-3.0136011 7.9528022 -0.67640799
-2.9136009 7.9528022 -0.64540797
-2.7136011 7.9528022 -0.615408
-2.613601 7.9528022 -0.60440803
-2.5136011 7.9528022 -0.578408
-2.4136009 7.9528022 -0.55440801
-2.313601 7.9528022 -0.54240799
-2.2136011 7.9528022 -0.518408
-2.0136011 7.9528022 -0.48740801
-1.913601 7.9528022 -0.46240801
-1.813601 7.9528022 -0.42740801
-1.713601 7.9528022 -0.40540799
-1.613601 7.9528022 -0.372408
-1.5136009 7.9528022 -0.349408
-1.313601 7.9528022 -0.33640799
-1.213601 7.9528022 -0.32540801
-1.113601 7.9528022 -0.335408
-1.0136009 7.9528022 -0.33840799
-0.91360098 7.9528022 -0.32940799
-0.81360102 7.9528022 -0.30940801
-0.71360099 7.9528022 -0.298408
-0.61360103 7.9528022 -0.30940801
-0.51360101 7.9528022 -0.29340801
-0.31360099 7.9528022 -0.26540801
-0.21360099 7.9528022 -0.252408
-0.013601 7.9528022 -0.21940801
0.086398996 7.9528022 -0.200408
0.386399 7.9528022 -0.143408
0.58639902 7.9528022 -0.104408
0.68639898 7.9528022 -0.090407997
0.88639897 7.9528022 -0.037408002
1.086399 7.9528022 0.010592
1.186399 7.9528022 0.049592
1.386399 7.9528022 0.084592
1.586399 7.9528022 0.137592
1.786399 7.9528022 0.18459199
1.9863991 7.9528022 0.239592
2.0863991 7.9528022 0.25859201
2.2863989 7.9528022 0.319592
2.386399 7.9528022 0.35759199
2.4863989 7.9528022 0.391592
2.5863991 7.9528022 0.42459199
2.686399 7.9528022 0.46159199
2.7863989 7.9528022 0.460592
2.886399 7.9528022 0.53059202
3.186399 7.9528022 0.61359203
3.2863989 7.9528022 0.638592
3.386399 7.9528022 0.69059199
3.4863989 7.9528022 0.726592
3.686399 7.9528022 0.796592
3.886399 7.9528022 0.86359203
3.9863989 7.9528022 0.92359197
4.0863991 7.9528022 0.96859199
4.2863989 7.9528022 1.030592
4.3863988 7.9528022 1.067592
4.4863992 7.9528022 1.104592
4.5863991 7.9528022 1.161592
4.686399 7.9528022 1.206592
4.7863989 7.9528022 1.2545919
4.8863988 7.9528022 1.281592
4.9863992 7.9528022 1.334592
5.0863991 7.9528022 1.390592
5.2863989 7.9528022 1.466592
5.4863992 7.9528022 1.411592
5.5863991 7.9528022 1.378592
5.686399 7.9528022 1.360592
5.7863989 7.9528022 1.332592
5.8863988 7.9528022 1.3055919
5.9863992 7.9528022 1.284592
6.0863991 7.9528022 1.244592
6.186399 7.9528022 1.2215919
6.2863989 7.9528022 1.204592
6.3863988 7.9528022 1.178592
6.4863992 7.9528022 1.150592
6.5863991 7.9528022 1.133592
6.686399 7.9528022 1.112592
6.7863989 7.9528022 1.091592
6.9863992 7.9528022 1.068592
7.0863991 7.9528022 1.057592
7.186399 7.9528022 1.043592
7.2863989 7.9528022 1.023592
7.3863988 7.9528022 1.007592
7.4863992 7.9528022 0.99959201
7.5863991 7.9528022 0.98559201
7.686399 7.9528022 0.97859198
7.7863989 7.9528022 0.96659201
7.8863988 7.9528022 0.96259201
7.9863992 7.9528022 0.935592
8.0863991 7.9528022 0.93159199
8.1863995 7.9528022 0.90859199
8.2863989 7.9528022 0.89659202
8.3863993 7.9528022 0.902592
8.4863987 7.9528022 0.89459199
8.5863991 7.9528022 0.87459201
8.6863995 7.9528022 0.86359203
8.7863989 7.9528022 0.83959198
8.9863987 7.9528022 0.81359202
9.1863995 7.9528022 0.78359199
9.2863989 7.9528022 0.75659198
9.3863993 7.9528022 0.71959198
9.5863991 7.9528022 0.65159202
9.6863995 7.9528022 0.601592
9.7863989 7.9528022 0.54959202
9.9863987 7.9528022 0.48659199
10.186399 7.9528022 0.36059201
10.386399 7.9528022 0.232592
10.586399 7.9528022 0.148592
10.686399 7.9528022 0.077592
10.886399 7.9528022 0.0065919999
11.086399 7.9528022 -0.065407999
11.286399 7.9528022 -0.112408
11.486399 7.9528022 -0.116408
11.686399 7.9528022 -0.101408
11.986399 7.9528022 0.038592
12.086399 7.9528022 0.093592003
12.186399 7.9528022 0.17559201
12.286399 7.9528022 0.237592
12.386399 7.9528022 0.30059201
12.486399 7.9528022 0.432592
-21.313601 7.8528018 0.61359203
-21.2136 7.8528018 0.66759199
-20.913601 7.8528018 0.85759199
-20.7136 7.8528018 0.89459199
-20.513601 7.8528018 0.89259201
-20.413601 7.8528018 0.87359202
-20.313601 7.8528018 0.86359203
-20.2136 7.8528018 0.85359198
-20.113602 7.8528018 0.85759199
-19.913601 7.8528018 0.84559202
-19.813601 7.8528018 0.84059203
-19.7136 7.8528018 0.83159202
-19.613602 7.8528018 0.80059201
-19.513601 7.8528018 0.796592
-19.413601 7.8528018 0.78159201
-19.313601 7.8528018 0.76959199
-19.2136 7.8528018 0.74159199
-19.013601 7.8528018 0.73759198
-18.913601 7.8528018 0.72859198
-18.813601 7.8528018 0.722592
-18.7136 7.8528018 0.71459198
-18.513601 7.8528018 0.708592
-18.413601 7.8528018 0.69359201
-18.313601 7.8528018 0.69259202
-18.2136 7.8528018 0.70059198
-18.113602 7.8528018 0.67959201
-18.013601 7.8528018 0.66959202
-17.913601 7.8528018 0.671592
-17.813601 7.8528018 0.65359199
-17.7136 7.8528018 0.643592
-17.613602 7.8528018 0.64159203
-17.513601 7.8528018 0.61859202
-17.2136 7.8528018 0.58659202
-17.113602 7.8528018 0.57559198
-17.013601 7.8528018 0.55459201
-16.813601 7.8528018 0.518592
-16.613602 7.8528018 0.48059201
-16.513601 7.8528018 0.45559201
-16.413601 7.8528018 0.453592
-16.2136 7.8528018 0.41859201
-16.013601 7.8528018 0.37659201
-15.713601 7.8528018 0.305592
-15.613601 7.8528018 0.27259201
-15.413601 7.8528018 0.25359201
-15.213601 7.8528018 0.211592
-14.913601 7.8528018 0.15559199
-14.813601 7.8528018 0.13259199
-14.613601 7.8528018 0.110592
-14.513601 7.8528018 0.083591998
-14.413601 7.8528018 0.055592
-14.213601 7.8528018 0.023592001
-14.013601 7.8528018 -0.0064079999
-13.913601 7.8528018 -0.017408
-13.813601 7.8528018 -0.061407998
-13.513601 7.8528018 -0.119408
-13.413601 7.8528018 -0.149408
-13.213601 7.8528018 -0.163408
-13.013601 7.8528018 -0.204408
-12.813601 7.8528018 -0.237408
-12.713601 7.8528018 -0.24140801
-12.613601 7.8528018 -0.266408
-12.413601 7.8528018 -0.289408
-12.113601 7.8528018 -0.32040799
-12.013601 7.8528018 -0.33140799
-11.813601 7.8528018 -0.363408
-11.713601 7.8528018 -0.38340801
-11.513601 7.8528018 -0.40540799
-11.213601 7.8528018 -0.42440799
-11.013601 7.8528018 -0.453408
-10.913601 7.8528018 -0.47740799
-10.613601 7.8528018 -0.49340799
-10.413601 7.8528018 -0.50240803
-10.313601 7.8528018 -0.52540803
-10.013601 7.8528018 -0.53640801
-9.8136005 7.8528018 -0.54940802
-9.7136011 7.8528018 -0.56740803
-9.6136007 7.8528018 -0.55840802
-9.4136009 7.8528018 -0.58040798
-9.3136005 7.8528018 -0.61740798
-9.2136011 7.8528018 -0.65140802
-9.0136013 7.8528018 -0.66740799
-8.9136009 7.8528018 -0.69040799
-8.7136011 7.8528018 -0.69240803
-8.6136007 7.8528018 -0.689408
-8.4136009 7.8528018 -0.722408
-8.3136005 7.8528018 -0.745408
-8.1136007 7.8528018 -0.76140797
-8.0136013 7.8528018 -0.73340797
-7.9136009 7.8528018 -0.74840802
-7.7136011 7.8528018 -0.75240803
-7.5136008 7.8528018 -0.74640799
-7.313601 7.8528018 -0.75240803
-7.2136011 7.8528018 -0.773408
-7.0136008 7.8528018 -0.73340797
-6.9136009 7.8528018 -0.731408
-6.813601 7.8528018 -0.71840799
-6.7136011 7.8528018 -0.73040801
-6.6136012 7.8528018 -0.71640801
-6.5136008 7.8528018 -0.71840799
-6.4136009 7.8528018 -0.71240801
-6.313601 7.8528018 -0.703408
-6.2136011 7.8528018 -0.69640797
-6.1136012 7.8528018 -0.66440803
-6.0136008 7.8528018 -0.66740799
-5.9136009 7.8528018 -0.66840798
-5.813601 7.8528018 -0.66440803
-5.6136012 7.8528018 -0.65640801
-5.5136008 7.8528018 -0.67040801
-5.4136009 7.8528018 -0.66940802
-5.313601 7.8528018 -0.66840798
-5.2136011 7.8528018 -0.67440802
-4.9136009 7.8528018 -0.66240799
-4.6136012 7.8528018 -0.67540801
-4.5136008 7.8528018 -0.67440802
-4.4136009 7.8528018 -0.657408
-4.313601 7.8528018 -0.652408
-4.2136011 7.8528018 -0.67040801
-4.0136008 7.8528018 -0.65340799
-3.9136009 7.8528018 -0.64540797
-3.813601 7.8528018 -0.65440798
-3.7136011 7.8528018 -0.65340799
-3.5136011 7.8528018 -0.66340798
-3.2136011 7.8528018 -0.652408
-3.0136011 7.8528018 -0.61340803
-2.9136009 7.8528018 -0.60440803
-2.813601 7.8528018 -0.57640803
-2.5136011 7.8528018 -0.51740801
-2.313601 7.8528018 -0.48540801
-2.2136011 7.8528018 -0.474408
-2.113601 7.8528018 -0.44940799
-2.0136011 7.8528018 -0.42540801
-1.913601 7.8528018 -0.39640799
-1.813601 7.8528018 -0.38240799
-1.713601 7.8528018 -0.347408
-1.5136009 7.8528018 -0.32940799
-1.413601 7.8528018 -0.33140799
-1.313601 7.8528018 -0.314408
-1.213601 7.8528018 -0.30440801
-1.113601 7.8528018 -0.29240799
-1.0136009 7.8528018 -0.29740801
-0.91360098 7.8528018 -0.29340801
-0.81360102 7.8528018 -0.29340801
-0.61360103 7.8528018 -0.26540801
-0.51360101 7.8528018 -0.25540799
-0.41360101 7.8528018 -0.254408
-0.31360099 7.8528018 -0.232408
-0.21360099 7.8528018 -0.224408
-0.113601 7.8528018 -0.189408
-0.013601 7.8528018 -0.166408
0.086398996 7.8528018 -0.159408
0.186399 7.8528018 -0.13840801
0.386399 7.8528018 -0.108408
0.48639899 7.8528018 -0.081408001
0.68639898 7.8528018 -0.037408002
0.88639897 7.8528018 -0.010408
0.98639899 7.8528018 0.013592
1.086399 7.8528018 0.042592
1.286399 7.8528018 0.094591998
1.4863991 7.8528018 0.145592
1.686399 7.8528018 0.208592
1.886399 7.8528018 0.247592
2.0863991 7.8528018 0.29259199
2.2863989 7.8528018 0.354592
2.386399 7.8528018 0.386592
2.5863991 7.8528018 0.458592
2.686399 7.8528018 0.49659199
2.886399 7.8528018 0.56559199
2.9863989 7.8528018 0.59959197
3.0863991 7.8528018 0.620592
3.186399 7.8528018 0.66259199
3.2863989 7.8528018 0.71959198
3.386399 7.8528018 0.72959203
3.4863989 7.8528018 0.763592
3.5863991 7.8528018 0.80859202
3.686399 7.8528018 0.84159201
3.7863989 7.8528018 0.87559199
3.886399 7.8528018 0.91959202
3.9863989 7.8528018 0.96259201
4.0863991 7.8528018 1.010592
4.2863989 7.8528018 1.082592
4.3863988 7.8528018 1.127592
4.5863991 7.8528018 1.194592
4.686399 7.8528018 1.262592
4.8863988 7.8528018 1.355592
4.9863992 7.8528018 1.411592
5.0863991 7.8528018 1.462592
5.2863989 7.8528018 1.487592
5.3863988 7.8528018 1.4715919
5.4863992 7.8528018 1.450592
5.5863991 7.8528018 1.4125921
5.686399 7.8528018 1.393592
5.7863989 7.8528018 1.3615921
5.8863988 7.8528018 1.336592
6.0863991 7.8528018 1.279592
6.186399 7.8528018 1.248592
6.3863988 7.8528018 1.211592
6.4863992 7.8528018 1.193592
6.5863991 7.8528018 1.1625921
6.686399 7.8528018 1.148592
6.7863989 7.8528018 1.141592
6.8863988 7.8528018 1.119592
6.9863992 7.8528018 1.100592
7.0863991 7.8528018 1.089592
7.186399 7.8528018 1.089592
7.3863988 7.8528018 1.049592
7.4863992 7.8528018 1.0275919
7.5863991 7.8528018 1.036592
7.7863989 7.8528018 0.99959201
7.8863988 7.8528018 0.98659199
8.0863991 7.8528018 0.96459198
8.1863995 7.8528018 0.95259202
8.2863989 7.8528018 0.91959202
8.4863987 7.8528018 0.91959202
8.6863995 7.8528018 0.90659201
8.7863989 7.8528018 0.89559197
8.8863993 7.8528018 0.86359203
9.0863991 7.8528018 0.847592
9.1863995 7.8528018 0.81859201
9.3863993 7.8528018 0.80059201
9.5863991 7.8528018 0.722592
9.7863989 7.8528018 0.64559197
9.9863987 7.8528018 0.57559198
10.086399 7.8528018 0.49959201
10.286399 7.8528018 0.416592
10.486399 7.8528018 0.30459201
10.586399 7.8528018 0.23659199
10.786399 7.8528018 0.173592
10.886399 7.8528018 0.111592
11.086399 7.8528018 0.079591997
11.286399 7.8528018 0.054591998
11.486399 7.8528018 0.044592001
11.686399 7.8528018 0.103592
11.886399 7.8528018 0.145592
11.986399 7.8528018 0.188592
12.186399 7.8528018 0.22859199
12.286399 7.8528018 0.261592
12.386399 7.8528018 0.30459201
12.486399 7.8528018 0.349592
12.586399 7.8528018 0.46159199
-21.413601 7.7528019 0.63159198
-21.313601 7.7528019 0.62159199
-21.2136 7.7528019 0.67359197
-21.113602 7.7528019 0.71859199
-21.013601 7.7528019 0.78359199
-20.913601 7.7528019 0.81759202
-20.813601 7.7528019 0.884592
-20.7136 7.7528019 0.90159202
-20.613602 7.7528019 0.90859199
-20.513601 7.7528019 0.93359202
-20.413601 7.7528019 0.907592
-20.313601 7.7528019 0.88559198
-20.2136 7.7528019 0.87859201
-20.013601 7.7528019 0.86859202
-19.813601 7.7528019 0.856592
-19.7136 7.7528019 0.847592
-19.613602 7.7528019 0.833592
-19.513601 7.7528019 0.82559198
-19.413601 7.7528019 0.80759197
-19.313601 7.7528019 0.79759198
-19.113602 7.7528019 0.77259201
-19.013601 7.7528019 0.74659199
-18.913601 7.7528019 0.740592
-18.7136 7.7528019 0.71959198
-18.513601 7.7528019 0.71259201
-18.313601 7.7528019 0.708592
-18.113602 7.7528019 0.70259202
-17.813601 7.7528019 0.67459202
-17.613602 7.7528019 0.65959197
-17.413601 7.7528019 0.65859199
-17.2136 7.7528019 0.61059201
-17.013601 7.7528019 0.59359199
-16.913601 7.7528019 0.55759197
-16.7136 7.7528019 0.53459197
-16.613602 7.7528019 0.52059197
-16.413601 7.7528019 0.47759199
-16.2136 7.7528019 0.453592
-16.013601 7.7528019 0.41859201
-15.913601 7.7528019 0.391592
-15.713601 7.7528019 0.363592
-15.413601 7.7528019 0.289592
-15.113601 7.7528019 0.24359199
-14.913601 7.7528019 0.20659199
-14.713601 7.7528019 0.159592
-14.413601 7.7528019 0.088592
-14.213601 7.7528019 0.072591998
-14.113601 7.7528019 0.045591999
-14.013601 7.7528019 0.018592
-13.813601 7.7528019 -0.004408
-13.713601 7.7528019 -0.026408
-13.513601 7.7528019 -0.067408003
-13.313601 7.7528019 -0.110408
-13.113601 7.7528019 -0.152408
-12.913601 7.7528019 -0.17540801
-12.713601 7.7528019 -0.202408
-12.513601 7.7528019 -0.247408
-12.313601 7.7528019 -0.26540801
-12.113601 7.7528019 -0.298408
-11.913601 7.7528019 -0.310408
-11.713601 7.7528019 -0.33840799
-11.513601 7.7528019 -0.36640799
-11.313601 7.7528019 -0.37540799
-11.013601 7.7528019 -0.41540799
-10.713601 7.7528019 -0.43440801
-10.513601 7.7528019 -0.460408
-10.213601 7.7528019 -0.47040799
-10.013601 7.7528019 -0.49240801
-9.8136005 7.7528019 -0.52040797
-9.6136007 7.7528019 -0.51540798
-9.4136009 7.7528019 -0.523408
-9.3136005 7.7528019 -0.58440799
-9.0136013 7.7528019 -0.62840801
-8.8136005 7.7528019 -0.64540797
-8.5136013 7.7528019 -0.67640799
-8.2136011 7.7528019 -0.694408
-8.0136013 7.7528019 -0.70940799
-7.7136011 7.7528019 -0.70240802
-7.6136012 7.7528019 -0.71940798
-7.4136009 7.7528019 -0.71840799
-7.313601 7.7528019 -0.703408
-7.1136012 7.7528019 -0.71140802
-6.9136009 7.7528019 -0.694408
-6.813601 7.7528019 -0.69040799
-6.7136011 7.7528019 -0.694408
-6.6136012 7.7528019 -0.68440801
-6.5136008 7.7528019 -0.69240803
-6.4136009 7.7528019 -0.67640799
-6.2136011 7.7528019 -0.64540797
-6.1136012 7.7528019 -0.63940799
-6.0136008 7.7528019 -0.63640797
-5.9136009 7.7528019 -0.60240799
-5.7136011 7.7528019 -0.615408
-5.5136008 7.7528019 -0.63540798
-5.4136009 7.7528019 -0.63640797
-5.313601 7.7528019 -0.62840801
-5.1136012 7.7528019 -0.648408
-5.0136008 7.7528019 -0.62340802
-4.813601 7.7528019 -0.611408
-4.7136011 7.7528019 -0.63140798
-4.6136012 7.7528019 -0.63640797
-4.5136008 7.7528019 -0.620408
-4.4136009 7.7528019 -0.64740801
-4.313601 7.7528019 -0.63040799
-4.1136012 7.7528019 -0.61240798
-4.0136008 7.7528019 -0.61340803
-3.9136009 7.7528019 -0.601408
-3.813601 7.7528019 -0.60940802
-3.613601 7.7528019 -0.59640801
-3.4136009 7.7528019 -0.58440799
-3.2136011 7.7528019 -0.601408
-3.0136011 7.7528019 -0.57540798
-2.9136009 7.7528019 -0.546408
-2.813601 7.7528019 -0.53640801
-2.613601 7.7528019 -0.50340801
-2.4136009 7.7528019 -0.46940801
-2.2136011 7.7528019 -0.402408
-2.0136011 7.7528019 -0.36940801
-1.913601 7.7528019 -0.347408
-1.713601 7.7528019 -0.340408
-1.613601 7.7528019 -0.33240801
-1.413601 7.7528019 -0.289408
-1.313601 7.7528019 -0.28040799
-1.213601 7.7528019 -0.27840799
-1.113601 7.7528019 -0.27140799
-1.0136009 7.7528019 -0.26340801
-0.91360098 7.7528019 -0.25740799
-0.81360102 7.7528019 -0.24140801
-0.71360099 7.7528019 -0.26040801
-0.61360103 7.7528019 -0.248408
-0.51360101 7.7528019 -0.225408
-0.41360101 7.7528019 -0.215408
-0.31360099 7.7528019 -0.204408
