# .PCD v0.7 - Point Cloud Data file format
VERSION 0.7
FIELDS x y z
SIZE 4 4 4
TYPE F F F
COUNT 1 1 1
WIDTH 1602
HEIGHT 1
VIEWPOINT 0 0 0 1 0 0 0
POINTS 1602
DATA ascii
9.5436583 8.4833155 3.587919
9.7436581 8.4833155 3.603919
10.043658 8.4833155 3.627919
10.243658 8.4833155 3.6359191
11.243658 8.4833155 3.752919
11.443658 8.4833155 3.7679191
11.843658 8.4833155 3.830919
12.043658 8.4833155 3.860919
12.543658 8.4833155 3.945919
12.743658 8.4833155 3.9819191
12.943658 8.4833155 4.0039191
13.143658 8.4833155 4.0279188
13.743658 8.4833155 4.1029191
13.943658 8.4833155 4.1189189
14.243658 8.4833155 4.1449189
14.743658 8.4833155 4.1749191
-13.856342 8.3833151 2.508919
-13.356342 8.3833151 2.741919
-12.956342 8.3833151 2.9809189
-12.756342 8.3833151 3.094919
-12.556342 8.3833151 3.196919
-12.156342 8.3833151 3.535919
-11.556342 8.3833151 4.117919
-11.156342 8.3833151 4.4649191
-10.856342 8.3833151 4.531919
-10.356342 8.3833151 4.6609192
-9.8563423 8.3833151 4.8009191
-9.6563416 8.3833151 4.8819189
-9.4563417 8.3833151 4.958919
-9.0563421 8.3833151 5.1119189
-8.8563423 8.3833151 5.1709189
-8.1563416 8.3833151 5.4039192
-7.9563422 8.3833151 5.4349189
-7.656342 8.3833151 5.5179191
-7.3563418 8.3833151 5.5799189
-7.156342 8.3833151 5.577919
-6.2563419 8.3833151 5.4909191
-5.4563422 8.3833151 5.3399191
-5.2563419 8.3833151 5.3119192
-4.4563422 8.3833151 5.156919
-4.156342 8.3833151 5.0809188
-3.956342 8.3833151 5.051919
-3.456342 8.3833151 4.9669189
-3.2563419 8.3833151 4.9449191
-3.0563419 8.3833151 4.899919
-2.8563421 8.3833151 4.8639188
-2.5563419 8.3833151 4.7869191
-1.656342 8.3833151 4.5039191
-1.356342 8.3833151 4.367919
-1.056342 8.3833151 4.2579188
-0.85634202 8.3833151 4.1399188
-0.55634201 8.3833151 3.9879191
1.543658 8.3833151 3.537919
1.843658 8.3833151 3.488919
2.2436581 8.3833151 3.4179189
2.543658 8.3833151 3.3729191
2.7436581 8.3833151 3.3559189
3.343658 8.3833151 3.3489189
3.6436579 8.3833151 3.3519189
4.1436582 8.3833151 3.353919
4.343658 8.3833151 3.3589189
4.5436578 8.3833151 3.360919
4.7436581 8.3833151 3.367919
5.5436578 8.3833151 3.370919
6.1436582 8.3833151 3.3879189
6.343658 8.3833151 3.3989191
6.5436578 8.3833151 3.409919
6.7436581 8.3833151 3.4059191
7.0436578 8.3833151 3.422919
7.2436581 8.3833151 3.426919
7.5436578 8.3833151 3.4609189
7.7436581 8.3833151 3.4679191
7.9436579 8.3833151 3.465919
8.1436577 8.3833151 3.4899189
8.3436584 8.3833151 3.4949191
8.5436583 8.3833151 3.525919
8.9436579 8.3833151 3.538919
9.4436579 8.3833151 3.5999191
9.6436577 8.3833151 3.597919
10.143658 8.3833151 3.653919
10.343658 8.3833151 3.646919
10.543658 8.3833151 3.6709189
11.043658 8.3833151 3.718919
11.643658 8.3833151 3.8069191
13.343658 8.3833151 4.0619192
13.543658 8.3833151 4.0799189
14.043658 8.3833151 4.1349192
14.443658 8.3833151 4.1789188
14.843658 8.3833151 4.2479191
-14.056342 8.2833147 2.5439191
-13.856342 8.2833147 2.597919
-13.656342 8.2833147 2.6759191
-13.256342 8.2833147 2.8729191
-12.556342 8.2833147 3.310919
-12.056342 8.2833147 3.7169189
-11.856342 8.2833147 3.8959191
-11.656342 8.2833147 4.070919
-11.256342 8.2833147 4.4029188
-11.056342 8.2833147 4.432919
-10.656342 8.2833147 4.5299191
-10.456342 8.2833147 4.577919
-10.156342 8.2833147 4.6709189
-9.9563417 8.2833147 4.7389188
-9.2563419 8.2833147 4.9969192
-8.6563416 8.2833147 5.2469192
-8.4563417 8.2833147 5.3139191
-7.7563419 8.2833147 5.445919
-6.9563422 8.2833147 5.5729189
-6.7563419 8.2833147 5.5269189
-6.5563421 8.2833147 5.5169191
-6.0563421 8.2833147 5.439919
-5.8563418 8.2833147 5.3949189
-5.656342 8.2833147 5.3449192
-3.656342 8.2833147 4.9889188
-2.2563419 8.2833147 4.7049189
-1.956342 8.2833147 4.5959191
-0.25634199 8.2833147 3.9089191
0.143658 8.2833147 3.7309189
0.343658 8.2833147 3.643919
0.54365802 8.2833147 3.613919
0.74365801 8.2833147 3.610919
0.94365799 8.2833147 3.5699191
1.143658 8.2833147 3.5759189
1.7436579 8.2833147 3.515919
1.943658 8.2833147 3.5099189
2.1436579 8.2833147 3.498919
2.343658 8.2833147 3.455919
2.9436581 8.2833147 3.360919
3.1436579 8.2833147 3.350919
3.9436581 8.2833147 3.3519189
5.0436578 8.2833147 3.3649189
5.343658 8.2833147 3.3649189
5.6436582 8.2833147 3.366919
5.843658 8.2833147 3.3919189
8.0436583 8.2833147 3.485919
8.7436581 8.2833147 3.535919
9.2436581 8.2833147 3.5699191
9.7436581 8.2833147 3.6199191
9.9436579 8.2833147 3.6359191
10.743658 8.2833147 3.705919
11.143658 8.2833147 3.7479191
11.443658 8.2833147 3.787919
12.043658 8.2833147 3.876919
12.243658 8.2833147 3.912919
12.443658 8.2833147 3.9549191
12.643658 8.2833147 3.965919
12.843658 8.2833147 3.9969189
13.143658 8.2833147 4.0429192
13.743658 8.2833147 4.117919
14.243658 8.2833147 4.162919
14.743658 8.2833147 4.2069192
14.943658 8.2833147 4.2339191
15.143658 8.2833147 4.2939191
-13.956342 8.1833153 2.597919
-13.556342 8.1833153 2.7839191
-13.356342 8.1833153 2.916919
-13.056342 8.1833153 3.071919
-12.756342 8.1833153 3.284919
-12.456342 8.1833153 3.482919
-12.256342 8.1833153 3.6419189
-12.056342 8.1833153 3.8359189
-11.756342 8.1833153 4.1479192
-11.556342 8.1833153 4.2939191
-11.356342 8.1833153 4.327919
-11.156342 8.1833153 4.3559189
-10.956342 8.1833153 4.4119191
-10.756342 8.1833153 4.4539189
-10.256342 8.1833153 4.5999188
-9.7563419 8.1833153 4.788919
-9.5563421 8.1833153 4.8419189
-9.0563421 8.1833153 5.057919
-8.7563419 8.1833153 5.1599188
-8.1563416 8.1833153 5.3559189
-7.8563418 8.1833153 5.4109192
-7.5563421 8.1833153 5.4899192
-7.3563418 8.1833153 5.5069189
-7.156342 8.1833153 5.524919
-6.3563418 8.1833153 5.4569192
-5.4563422 8.1833153 5.3059192
-5.156342 8.1833153 5.2729192
-4.9563422 8.1833153 5.2149191
-4.7563419 8.1833153 5.189919
-4.2563419 8.1833153 5.1119189
-3.8563421 8.1833153 5.0699191
-3.456342 8.1833153 4.9759188
-3.156342 8.1833153 4.9239192
-2.956342 8.1833153 4.8929191
-1.556342 8.1833153 4.4349189
-1.356342 8.1833153 4.333919
-0.95634198 8.1833153 4.1719189
-0.75634199 8.1833153 4.0699191
-0.156342 8.1833153 3.807919
1.343658 8.1833153 3.538919
3.343658 8.1833153 3.3399191
3.543658 8.1833153 3.3559189
4.0436578 8.1833153 3.370919
4.5436578 8.1833153 3.3699191
4.843658 8.1833153 3.373919
6.0436578 8.1833153 3.3919189
6.343658 8.1833153 3.4059191
6.5436578 8.1833153 3.4149189
7.0436578 8.1833153 3.426919
7.7436581 8.1833153 3.4779191
8.1436577 8.1833153 3.472919
8.4436579 8.1833153 3.5069189
8.9436579 8.1833153 3.548919
9.6436577 8.1833153 3.607919
10.143658 8.1833153 3.649919
10.443658 8.1833153 3.6689191
11.643658 8.1833153 3.820919
11.843658 8.1833153 3.8459189
13.343658 8.1833153 4.0739188
14.543658 8.1833153 4.2079191
15.243658 8.1833153 4.308919
-13.856342 8.0833149 2.722919
-13.656342 8.0833149 2.833919
-13.256342 8.0833149 3.051919
-12.956342 8.0833149 3.196919
-12.656342 8.0833149 3.4319191
-11.956342 8.0833149 4.0099192
-11.656342 8.0833149 4.222919
-11.456342 8.0833149 4.2459192
-11.256342 8.0833149 4.288919
-11.056342 8.0833149 4.3359189
-10.856342 8.0833149 4.3599191
-10.456342 8.0833149 4.479919
-9.8563423 8.0833149 4.6999192
-8.4563417 8.0833149 5.2459192
-7.656342 8.0833149 5.419919
-6.8563418 8.0833149 5.4979191
-5.9563422 8.0833149 5.4119191
-5.656342 8.0833149 5.3399191
-4.4563422 8.0833149 5.1249189
-4.0563421 8.0833149 5.0739188
-3.656342 8.0833149 5.0149188
-2.7563419 8.0833149 4.8379192
-2.5563419 8.0833149 4.7779188
-2.2563419 8.0833149 4.6879191
-1.856342 8.0833149 4.5279188
-1.156342 8.0833149 4.2519188
-0.65634203 8.0833149 4.0369191
-0.45634201 8.0833149 3.9539189
0.043657999 8.0833149 3.7379191
0.24365801 8.0833149 3.6549189
0.44365799 8.0833149 3.640919
0.64365798 8.0833149 3.597919
0.84365797 8.0833149 3.570919
1.043658 8.0833149 3.5539191
1.543658 8.0833149 3.5469191
1.843658 8.0833149 3.5139191
2.043658 8.0833149 3.4899189
2.2436581 8.0833149 3.4869189
2.4436581 8.0833149 3.4819191
2.6436579 8.0833149 3.442919
2.843658 8.0833149 3.4179189
3.043658 8.0833149 3.3819189
3.7436581 8.0833149 3.353919
3.9436581 8.0833149 3.367919
4.2436581 8.0833149 3.370919
5.1436582 8.0833149 3.3829191
5.343658 8.0833149 3.383919
5.5436578 8.0833149 3.3819189
6.7436581 8.0833149 3.426919
7.1436582 8.0833149 3.445919
7.343658 8.0833149 3.4449191
7.5436578 8.0833149 3.4619191
7.9436579 8.0833149 3.4839189
8.6436577 8.0833149 3.5209191
9.3436584 8.0833149 3.580919
9.8436584 8.0833149 3.6159191
10.743658 8.0833149 3.696919
10.943658 8.0833149 3.7219191
11.343658 8.0833149 3.768919
12.643658 8.0833149 3.9969189
12.843658 8.0833149 4.0299191
13.043658 8.0833149 4.0479188
13.643658 8.0833149 4.123919
13.843658 8.0833149 4.156919
14.043658 8.0833149 4.162919
14.743658 8.0833149 4.2519188
14.943658 8.0833149 4.268919
15.443658 8.0833149 4.3399191
-14.156342 7.983315 2.7049191
-13.056342 7.983315 3.281919
-12.856342 7.983315 3.3729191
-12.456342 7.983315 3.718919
-12.256342 7.983315 3.8459189
-11.856342 7.983315 4.1349192
-11.556342 7.983315 4.1739192
-10.556342 7.983315 4.4059191
-10.256342 7.983315 4.5129189
-10.056342 7.983315 4.6129189
-9.5563421 7.983315 4.7769189
-9.2563419 7.983315 4.9309192
-8.7563419 7.983315 5.1159191
-8.1563416 7.983315 5.2839189
-7.8563418 7.983315 5.3589191
-7.4563422 7.983315 5.433919
-7.2563419 7.983315 5.4559188
-7.0563421 7.983315 5.4719191
-6.656342 7.983315 5.4849191
-6.156342 7.983315 5.413919
-4.9563422 7.983315 5.2129192
-3.456342 7.983315 4.9639192
-2.956342 7.983315 4.8729191
-2.456342 7.983315 4.7049189
-2.156342 7.983315 4.6059189
-1.656342 7.983315 4.4249191
-1.356342 7.983315 4.2969189
-0.35634199 7.983315 3.8659191
-0.156342 7.983315 3.7829189
1.343658 7.983315 3.564919
3.343658 7.983315 3.3369191
4.6436582 7.983315 3.3729191
5.7436581 7.983315 3.376919
6.2436581 7.983315 3.4149189
6.5436578 7.983315 3.4029191
8.1436577 7.983315 3.4969189
8.3436584 7.983315 3.5309191
8.8436584 7.983315 3.5559189
9.0436583 7.983315 3.5599191
9.5436583 7.983315 3.5999191
10.143658 7.983315 3.6529191
10.343658 7.983315 3.6719191
10.543658 7.983315 3.6909189
11.143658 7.983315 3.751919
11.543658 7.983315 3.8329189
11.743658 7.983315 3.8469191
12.043658 7.983315 3.900919
12.343658 7.983315 3.9449191
13.243658 7.983315 4.0889192
13.443658 7.983315 4.1009188
14.243658 7.983315 4.1979189
14.443658 7.983315 4.2249188
15.243658 7.983315 4.327919
-13.756342 7.8833151 2.9179189
-13.556342 7.8833151 3.0559189
-12.856342 7.8833151 3.492919
-12.656342 7.8833151 3.594919
-12.256342 7.8833151 3.962919
-11.956342 7.8833151 4.0429192
-11.756342 7.8833151 4.083919
-11.356342 7.8833151 4.1619191
-10.856342 7.8833151 4.301919
-9.8563423 7.8833151 4.6449189
-9.0563421 7.8833151 4.9559188
-8.8563423 7.8833151 5.025919
-7.9563422 7.8833151 5.2849188
-7.5563421 7.8833151 5.373919
-6.8563418 7.8833151 5.439919
-6.4563422 7.8833151 5.4279189
-5.9563422 7.8833151 5.3749189
-5.656342 7.8833151 5.3029189
-5.4563422 7.8833151 5.2899189
-5.156342 7.8833151 5.248919
-4.7563419 7.8833151 5.1879191
-4.5563421 7.8833151 5.1459188
-4.3563418 7.8833151 5.1129189
-4.156342 7.8833151 5.0819192
-3.956342 7.8833151 5.0469189
-3.7563419 7.8833151 5.0109191
-3.156342 7.8833151 4.9169192
-1.056342 7.8833151 4.1469188
-0.85634202 7.8833151 4.0559192
-0.65634203 7.8833151 3.9739189
0.343658 7.8833151 3.630919
0.54365802 7.8833151 3.6199191
1.143658 7.8833151 3.5509191
1.643658 7.8833151 3.531919
2.1436579 7.8833151 3.5109191
2.4436581 7.8833151 3.4969189
2.7436581 7.8833151 3.4509189
3.043658 7.8833151 3.445919
3.6436579 7.8833151 3.3489189
4.0436578 7.8833151 3.3649189
4.4436579 7.8833151 3.3729191
4.843658 7.8833151 3.3789189
5.343658 7.8833151 3.393919
6.0436578 7.8833151 3.3979189
6.843658 7.8833151 3.4289191
7.1436582 7.8833151 3.4439189
7.343658 7.8833151 3.465919
7.5436578 7.8833151 3.4809189
7.843658 7.8833151 3.488919
8.5436583 7.8833151 3.5179191
9.2436581 7.8833151 3.577919
9.9436579 7.8833151 3.6429191
10.743658 7.8833151 3.7019191
10.943658 7.8833151 3.725919
12.543658 7.8833151 3.9979191
12.743658 7.8833151 4.0029192
13.043658 7.8833151 4.0669188
13.843658 7.8833151 4.162919
14.643658 7.8833151 4.2569189
14.843658 7.8833151 4.2909188
15.443658 7.8833151 4.3629189
15.643658 7.8833151 4.3779192
-14.256342 7.7833152 2.7809191
-14.056342 7.7833152 2.8889191
-13.356342 7.7833152 3.238919
-13.156342 7.7833152 3.3889191
-12.556342 7.7833152 3.8189189
-12.356342 7.7833152 3.8879189
-12.056342 7.7833152 3.958919
-11.856342 7.7833152 3.9969189
-11.656342 7.7833152 4.0459189
-11.056342 7.7833152 4.1939192
-10.556342 7.7833152 4.3449192
-10.356342 7.7833152 4.4249191
-10.056342 7.7833152 4.5339189
-9.5563421 7.7833152 4.7139192
-9.2563419 7.7833152 4.8439188
-8.6563416 7.7833152 5.0989189
-8.4563417 7.7833152 5.1759191
-8.2563419 7.7833152 5.2059188
-7.7563419 7.7833152 5.2899189
-7.3563418 7.7833152 5.373919
-7.156342 7.7833152 5.4079189
-6.156342 7.7833152 5.3829188
-4.9563422 7.7833152 5.2059188
-3.456342 7.7833152 4.985919
-2.8563421 7.7833152 4.808919
-2.656342 7.7833152 4.735919
-2.156342 7.7833152 4.570919
-1.856342 7.7833152 4.4499192
-1.656342 7.7833152 4.3789191
-0.35634199 7.7833152 3.830919
-0.056341998 7.7833152 3.718919
0.143658 7.7833152 3.626919
0.74365801 7.7833152 3.6099191
0.94365799 7.7833152 3.594919
1.443658 7.7833152 3.548919
1.943658 7.7833152 3.5179191
3.2436581 7.7833152 3.459919
3.4436581 7.7833152 3.4489191
3.843658 7.7833152 3.367919
4.2436581 7.7833152 3.373919
4.6436582 7.7833152 3.377919
5.1436582 7.7833152 3.383919
5.5436578 7.7833152 3.393919
5.7436581 7.7833152 3.400919
6.2436581 7.7833152 3.4059191
6.6436582 7.7833152 3.4439189
8.0436583 7.7833152 3.4949191
8.3436584 7.7833152 3.5179191
8.8436584 7.7833152 3.560919
9.4436579 7.7833152 3.6059189
9.7436581 7.7833152 3.626919
10.143658 7.7833152 3.6529191
10.343658 7.7833152 3.660919
10.543658 7.7833152 3.692919
11.243658 7.7833152 3.7739191
11.843658 7.7833152 3.8719189
12.043658 7.7833152 3.912919
13.243658 7.7833152 4.097919
13.443658 7.7833152 4.1199188
13.643658 7.7833152 4.1519189
14.143658 7.7833152 4.208919
14.343658 7.7833152 4.2439189
15.143658 7.7833152 4.3309188
15.743658 7.7833152 4.4189191
-14.356342 7.6833148 2.8529191
-13.956342 7.6833148 2.9909191
-13.656342 7.6833148 3.1389191
-13.056342 7.6833148 3.537919
-12.656342 7.6833148 3.732919
-12.256342 7.6833148 3.8599191
-11.956342 7.6833148 3.923919
-11.756342 7.6833148 3.9679191
-11.456342 7.6833148 4.0459189
-9.7563419 7.6833148 4.6199188
-8.9563417 7.6833148 4.9259191
-8.7563419 7.6833148 4.991919
-8.0563421 7.6833148 5.2059188
-6.656342 7.6833148 5.3779192
-6.4563422 7.6833148 5.4029188
-5.9563422 7.6833148 5.340919
-5.656342 7.6833148 5.2809191
-5.3563418 7.6833148 5.2349191
-4.7563419 7.6833148 5.150919
-4.5563421 7.6833148 5.1399188
-4.3563418 7.6833148 5.0959191
-4.0563421 7.6833148 5.0749192
-3.8563421 7.6833148 5.037919
-3.2563419 7.6833148 4.9109192
-3.0563419 7.6833148 4.840919
-2.3563421 7.6833148 4.6159191
-1.356342 7.6833148 4.2259188
-0.55634201 7.6833148 3.900919
0.343658 7.6833148 3.616919
0.54365802 7.6833148 3.5999191
1.143658 7.6833148 3.5539191
1.7436579 7.6833148 3.524919
2.1436579 7.6833148 3.5099189
2.343658 7.6833148 3.5039189
2.6436579 7.6833148 3.508919
2.843658 7.6833148 3.482919
3.7436581 7.6833148 3.455919
4.4436579 7.6833148 3.367919
4.9436579 7.6833148 3.3829191
5.343658 7.6833148 3.400919
6.4436579 7.6833148 3.423919
7.0436578 7.6833148 3.4479189
7.4436579 7.6833148 3.4679191
7.6436582 7.6833148 3.4879191
8.6436577 7.6833148 3.544919
9.0436583 7.6833148 3.5759189
9.2436581 7.6833148 3.597919
10.843658 7.6833148 3.7409191
11.043658 7.6833148 3.748919
11.443658 7.6833148 3.8129189
11.643658 7.6833148 3.8359189
12.243658 7.6833148 3.9419191
12.443658 7.6833148 3.9879191
12.743658 7.6833148 4.024919
13.943658 7.6833148 4.1869192
14.943658 7.6833148 4.3329191
15.343658 7.6833148 4.366919
15.943658 7.6833148 4.4169192
16.143658 7.6833148 4.4119191
-14.256342 7.5833149 2.929919
-13.856342 7.5833149 3.1349189
-13.556342 7.5833149 3.2939191
-13.356342 7.5833149 3.4379189
-12.956342 7.5833149 3.6219189
-12.756342 7.5833149 3.610919
-12.456342 7.5833149 3.715919
-12.056342 7.5833149 3.834919
-11.556342 7.5833149 3.969919
-11.256342 7.5833149 4.051919
-10.756342 7.5833149 4.2059188
-10.456342 7.5833149 4.3049188
-10.256342 7.5833149 4.3889189
-10.056342 7.5833149 4.4579191
-9.8563423 7.5833149 4.5299191
-9.4563417 7.5833149 4.6979189
-9.1563416 7.5833149 4.8319192
-8.5563421 7.5833149 5.0789189
-8.2563419 7.5833149 5.1529188
-7.8563418 7.5833149 5.208919
-7.5563421 7.5833149 5.2629189
-7.3563418 7.5833149 5.3029189
-7.0563421 7.5833149 5.3469191
-6.8563418 7.5833149 5.3569188
-6.2563419 7.5833149 5.3619189
-5.156342 7.5833149 5.189919
-4.9563422 7.5833149 5.189919
-3.5563419 7.5833149 4.9689188
-2.7563419 7.5833149 4.7179189
-2.5563419 7.5833149 4.6589189
-2.0563419 7.5833149 4.5039191
-1.856342 7.5833149 4.406919
-1.556342 7.5833149 4.3119192
-1.056342 7.5833149 4.0969191
-0.85634202 7.5833149 4.0139189
-0.25634199 7.5833149 3.7599189
-0.056341998 7.5833149 3.633919
0.84365797 7.5833149 3.5999191
1.343658 7.5833149 3.5659189
1.543658 7.5833149 3.5539191
1.943658 7.5833149 3.524919
3.043658 7.5833149 3.4899189
3.543658 7.5833149 3.4769189
3.9436581 7.5833149 3.4619191
4.1436582 7.5833149 3.386919
4.6436582 7.5833149 3.3989191
5.5436578 7.5833149 3.4159191
5.7436581 7.5833149 3.4209189
5.9436579 7.5833149 3.4259191
6.2436581 7.5833149 3.419919
6.7436581 7.5833149 3.4319191
7.2436581 7.5833149 3.4669189
7.9436579 7.5833149 3.4969189
8.4436579 7.5833149 3.5369191
8.8436584 7.5833149 3.564919
9.4436579 7.5833149 3.6119189
9.7436581 7.5833149 3.6199191
9.9436579 7.5833149 3.6489191
10.243658 7.5833149 3.6719191
10.443658 7.5833149 3.6889191
11.243658 7.5833149 3.781919
11.943658 7.5833149 3.9019189
12.943658 7.5833149 4.057919
13.343658 7.5833149 4.1289191
14.143658 7.5833149 4.222919
14.443658 7.5833149 4.2739191
14.743658 7.5833149 4.3119192
15.543658 7.5833149 4.3969188
15.743658 7.5833149 4.432919
16.343658 7.5833149 4.4479189
-14.656342 7.483315 2.8529191
-14.456342 7.483315 2.9479189
-14.056342 7.483315 3.1059189
-13.756342 7.483315 3.2829189
-13.256342 7.483315 3.6119189
-12.556342 7.483315 3.620919
-12.356342 7.483315 3.6919191
-12.156342 7.483315 3.768919
-11.756342 7.483315 3.8649189
-10.956342 7.483315 4.1149192
-8.8563423 7.483315 4.893919
-8.6563416 7.483315 4.9769192
-8.0563421 7.483315 5.1349192
-6.5563421 7.483315 5.3389192
-6.0563421 7.483315 5.3399191
-5.8563418 7.483315 5.3129191
-5.656342 7.483315 5.2739191
-5.4563422 7.483315 5.2589188
-4.5563421 7.483315 5.123919
-4.2563419 7.483315 5.0969191
-4.0563421 7.483315 5.070919
-3.2563419 7.483315 4.840919
-2.956342 7.483315 4.7509189
-2.2563419 7.483315 4.511919
-1.456342 7.483315 4.2279191
-0.75634199 7.483315 3.936919
-0.55634201 7.483315 3.8529191
0.143658 7.483315 3.5999191
0.44365799 7.483315 3.581919
0.64365798 7.483315 3.6059189
1.143658 7.483315 3.5669191
2.6436579 7.483315 3.511919
2.843658 7.483315 3.5039189
3.343658 7.483315 3.478919
4.4436579 7.483315 3.3849189
4.843658 7.483315 3.399919
5.1436582 7.483315 3.4059191
5.343658 7.483315 3.4119191
6.4436579 7.483315 3.4289191
6.9436579 7.483315 3.4549191
7.4436579 7.483315 3.478919
7.6436582 7.483315 3.4979191
8.1436577 7.483315 3.525919
9.2436581 7.483315 3.597919
10.643658 7.483315 3.7209189
10.843658 7.483315 3.735919
11.043658 7.483315 3.768919
11.543658 7.483315 3.843919
11.743658 7.483315 3.880919
12.243658 7.483315 3.9709189
12.443658 7.483315 3.998919
12.643658 7.483315 4.031919
13.143658 7.483315 4.0999188
13.543658 7.483315 4.169919
13.743658 7.483315 4.1759191
15.043658 7.483315 4.3599191
15.943658 7.483315 4.4279189
16.543657 7.483315 4.399919
-14.256342 7.3833151 3.0989189
-13.956342 7.3833151 3.255919
-13.556342 7.3833151 3.5069189
-12.956342 7.3833151 3.6119189
-12.056342 7.3833151 3.719919
-11.856342 7.3833151 3.791919
-10.756342 7.3833151 4.149919
-9.9563417 7.3833151 4.413919
-9.7563419 7.3833151 4.5099192
-9.5563421 7.3833151 4.5889192
-9.2563419 7.3833151 4.7069192
-9.0563421 7.3833151 4.794919
-8.3563423 7.3833151 5.0679188
-7.8563418 7.3833151 5.1479192
-7.156342 7.3833151 5.2779188
-6.9563422 7.3833151 5.2959189
-6.7563419 7.3833151 5.2999191
-6.2563419 7.3833151 5.3189192
-5.156342 7.3833151 5.2059188
-4.9563422 7.3833151 5.1789188
-4.7563419 7.3833151 5.1459188
-3.8563421 7.3833151 4.9879189
-3.656342 7.3833151 4.9479189
-3.456342 7.3833151 4.8829188
-2.656342 7.3833151 4.6329188
-2.456342 7.3833151 4.5699191
-1.956342 7.3833151 4.3799191
-1.656342 7.3833151 4.2639189
-1.156342 7.3833151 4.0629191
-0.95634198 7.3833151 3.985919
-0.35634199 7.3833151 3.7249191
-0.156342 7.3833151 3.636919
1.643658 7.3833151 3.5509191
1.943658 7.3833151 3.5499189
2.1436579 7.3833151 3.515919
2.343658 7.3833151 3.5229189
3.043658 7.3833151 3.505919
3.6436579 7.3833151 3.4769189
3.9436581 7.3833151 3.472919
4.1436582 7.3833151 3.488919
4.343658 7.3833151 3.469919
4.5436578 7.3833151 3.423919
5.6436582 7.3833151 3.4219191
6.6436582 7.3833151 3.4549191
7.2436581 7.3833151 3.4749191
7.843658 7.3833151 3.5099189
8.3436584 7.3833151 3.535919
8.5436583 7.3833151 3.5529189
8.7436581 7.3833151 3.570919
9.0436583 7.3833151 3.5869191
9.5436583 7.3833151 3.6219189
9.7436581 7.3833151 3.6429191
10.043658 7.3833151 3.669919
10.243658 7.3833151 3.682919
10.443658 7.3833151 3.696919
11.243658 7.3833151 3.797919
11.943658 7.3833151 3.9179189
12.943658 7.3833151 4.0889192
13.943658 7.3833151 4.2179189
14.143658 7.3833151 4.2589188
14.343658 7.3833151 4.2669191
14.543658 7.3833151 4.3269191
14.843658 7.3833151 4.3419189
15.243658 7.3833151 4.3849192
15.643658 7.3833151 4.4239192
16.143658 7.3833151 4.4249191
16.343658 7.3833151 4.445919
16.743658 7.3833151 4.4239192
-14.456342 7.2833152 3.0629189
-14.156342 7.2833152 3.2179191
-13.756342 7.2833152 3.4549191
-13.456342 7.2833152 3.6649189
-13.156342 7.2833152 3.646919
-12.756342 7.2833152 3.5729189
-12.556342 7.2833152 3.531919
-12.356342 7.2833152 3.5429189
-12.156342 7.2833152 3.626919
-11.456342 7.2833152 3.854919
-11.256342 7.2833152 3.9159191
-11.056342 7.2833152 3.9969189
-10.856342 7.2833152 4.0679188
-10.556342 7.2833152 4.1679192
-10.256342 7.2833152 4.2719188
-8.8563423 7.2833152 4.833919
-8.6563416 7.2833152 4.899919
-8.0563421 7.2833152 5.0629191
-7.656342 7.2833152 5.1379189
-7.3563418 7.2833152 5.202919
-5.656342 7.2833152 5.2599192
-5.3563418 7.2833152 5.229919
-4.4563422 7.2833152 5.1009188
-4.156342 7.2833152 5.0459189
-2.956342 7.2833152 4.6929188
-1.456342 7.2833152 4.162919
-0.75634199 7.2833152 3.8829191
0.143658 7.2833152 3.581919
0.343658 7.2833152 3.5559189
0.54365802 7.2833152 3.564919
0.74365801 7.2833152 3.5729189
0.94365799 7.2833152 3.5829189
1.443658 7.2833152 3.557919
2.6436579 7.2833152 3.5269189
2.843658 7.2833152 3.524919
4.843658 7.2833152 3.4049189
5.9436579 7.2833152 3.436919
6.1436582 7.2833152 3.4389191
6.343658 7.2833152 3.452919
8.1436577 7.2833152 3.5199189
9.2436581 7.2833152 3.6059189
10.943658 7.2833152 3.7639191
11.443658 7.2833152 3.850919
11.743658 7.2833152 3.900919
12.243658 7.2833152 3.972919
12.643658 7.2833152 4.0309191
13.243658 7.2833152 4.1469188
13.443658 7.2833152 4.1729188
13.743658 7.2833152 4.2109189
15.043658 7.2833152 4.3779192
15.443658 7.2833152 4.4189191
15.843658 7.2833152 4.4279189
16.543657 7.2833152 4.4149189
16.843658 7.2833152 4.4249191
-14.856342 7.1833148 3.0279191
-14.656342 7.1833148 3.0469191
-14.056342 7.1833148 3.380919
-11.856342 7.1833148 3.686919
-11.656342 7.1833148 3.7499189
-9.9563417 7.1833148 4.334919
-9.7563419 7.1833148 4.4409189
-8.4563417 7.1833148 4.9689188
-8.2563419 7.1833148 5.0209188
-7.8563418 7.1833148 5.0629191
-7.0563421 7.1833148 5.2269192
-6.7563419 7.1833148 5.2459192
-6.4563422 7.1833148 5.2509189
-6.156342 7.1833148 5.274919
-5.8563418 7.1833148 5.2629189
-5.156342 7.1833148 5.1929188
-4.7563419 7.1833148 5.1549191
-3.956342 7.1833148 4.979919
-3.2563419 7.1833148 4.7659192
-2.7563419 7.1833148 4.6399188
-2.456342 7.1833148 4.511919
-2.2563419 7.1833148 4.446919
-1.856342 7.1833148 4.3009191
-1.656342 7.1833148 4.2219191
-1.2563421 7.1833148 4.0639191
-1.056342 7.1833148 3.979919
-0.55634201 7.1833148 3.7739191
-0.156342 7.1833148 3.6249189
1.2436579 7.1833148 3.5699191
1.643658 7.1833148 3.564919
1.843658 7.1833148 3.5429189
2.043658 7.1833148 3.548919
2.4436581 7.1833148 3.5439191
3.1436579 7.1833148 3.5199189
3.343658 7.1833148 3.5049191
3.7436581 7.1833148 3.498919
4.0436578 7.1833148 3.5069189
4.4436579 7.1833148 3.4949191
4.7436581 7.1833148 3.475919
5.0436578 7.1833148 3.4439189
5.343658 7.1833148 3.426919
5.5436578 7.1833148 3.4309189
6.5436578 7.1833148 3.455919
6.7436581 7.1833148 3.4749191
6.9436579 7.1833148 3.485919
7.1436582 7.1833148 3.491919
7.343658 7.1833148 3.488919
7.6436582 7.1833148 3.4979191
8.3436584 7.1833148 3.5499189
8.7436581 7.1833148 3.5729189
9.5436583 7.1833148 3.6329191
9.8436584 7.1833148 3.663919
10.043658 7.1833148 3.682919
10.343658 7.1833148 3.683919
10.543658 7.1833148 3.708919
10.743658 7.1833148 3.7249191
11.243658 7.1833148 3.814919
12.443658 7.1833148 4.0139189
13.043658 7.1833148 4.1079192
14.043658 7.1833148 4.268919
14.243658 7.1833148 4.2909188
14.543658 7.1833148 4.3289189
14.743658 7.1833148 4.3579192
15.243658 7.1833148 4.4109192
16.143658 7.1833148 4.433919
17.043657 7.1833148 4.3909192
-14.956342 7.0833149 3.189919
-14.456342 7.0833149 3.2169189
-14.256342 7.0833149 3.320919
-13.756342 7.0833149 3.6529191
-13.456342 7.0833149 3.7779191
-13.056342 7.0833149 3.653919
-12.856342 7.0833149 3.6329191
-12.556342 7.0833149 3.560919
-12.056342 7.0833149 3.5869191
-11.456342 7.0833149 3.7609191
-10.956342 7.0833149 3.9509189
-10.656342 7.0833149 4.0509191
-10.456342 7.0833149 4.1279192
-9.5563421 7.0833149 4.459919
-9.2563419 7.0833149 4.6019192
-8.9563417 7.0833149 4.7219191
-8.0563421 7.0833149 4.9749188
-7.4563422 7.0833149 5.0939188
-5.5563421 7.0833149 5.229919
-5.3563418 7.0833149 5.208919
-4.9563422 7.0833149 5.1759191
-3.7563419 7.0833149 4.8769188
-3.5563419 7.0833149 4.8189192
-3.0563419 7.0833149 4.6739192
-2.0563419 7.0833149 4.334919
-0.85634202 7.0833149 3.854919
-0.35634199 7.0833149 3.7249191
0.043657999 7.0833149 3.560919
0.24365801 7.0833149 3.5559189
0.44365799 7.0833149 3.5559189
0.64365798 7.0833149 3.5499189
0.84365797 7.0833149 3.554919
1.443658 7.0833149 3.5669191
2.2436581 7.0833149 3.544919
2.843658 7.0833149 3.508919
3.543658 7.0833149 3.5069189
4.2436581 7.0833149 3.5049191
5.7436581 7.0833149 3.4489191
5.9436579 7.0833149 3.4509189
6.2436581 7.0833149 3.455919
7.843658 7.0833149 3.5199189
8.0436583 7.0833149 3.5329189
8.5436583 7.0833149 3.577919
9.0436583 7.0833149 3.5869191
10.943658 7.0833149 3.7639191
11.543658 7.0833149 3.8699191
11.743658 7.0833149 3.8959191
11.943658 7.0833149 3.9379189
12.643658 7.0833149 4.0599189
12.843658 7.0833149 4.0959191
13.243658 7.0833149 4.1479192
13.443658 7.0833149 4.1689191
13.743658 7.0833149 4.2179189
15.043658 7.0833149 4.3969188
15.543658 7.0833149 4.4219189
15.743658 7.0833149 4.4409189
15.943658 7.0833149 4.4359188
16.343658 7.0833149 4.4349189
16.743658 7.0833149 4.4389191
-14.756342 6.983315 3.1749189
-13.956342 6.983315 3.6059189
-13.556342 6.983315 3.702919
-13.256342 6.983315 3.6659191
-12.256342 6.983315 3.4749191
-11.156342 6.983315 3.830919
-10.156342 6.983315 4.2109189
-8.6563416 6.983315 4.8059192
-8.4563417 6.983315 4.893919
-8.2563419 6.983315 4.9489188
-7.8563418 6.983315 4.991919
-7.656342 6.983315 5.0369191
-7.156342 6.983315 5.130919
-6.8563418 6.983315 5.162919
-6.656342 6.983315 5.1859188
-6.3563418 6.983315 5.1919188
-6.0563421 6.983315 5.2259188
-5.8563418 6.983315 5.2369189
-5.156342 6.983315 5.162919
-4.7563419 6.983315 5.0819192
-4.5563421 6.983315 5.0569191
-4.3563418 6.983315 4.9999189
-4.0563421 6.983315 4.9279189
-2.656342 6.983315 4.525919
-2.456342 6.983315 4.4669189
-2.2563419 6.983315 4.3909192
-1.656342 6.983315 4.169919
-1.456342 6.983315 4.0919189
-1.2563421 6.983315 4.0029192
-1.056342 6.983315 3.913919
-0.65634203 6.983315 3.758919
1.043658 6.983315 3.525919
2.043658 6.983315 3.547919
2.543658 6.983315 3.5329189
3.1436579 6.983315 3.5279191
3.343658 6.983315 3.5199189
3.843658 6.983315 3.5009191
4.0436578 6.983315 3.5099189
4.5436578 6.983315 3.491919
4.843658 6.983315 3.4819191
5.5436578 6.983315 3.439919
7.1436582 6.983315 3.4939189
7.4436579 6.983315 3.5099189
8.2436581 6.983315 3.5539191
9.2436581 6.983315 3.6099191
9.5436583 6.983315 3.643919
9.7436581 6.983315 3.6579189
9.9436579 6.983315 3.6709189
10.243658 6.983315 3.699919
10.543658 6.983315 3.715919
10.743658 6.983315 3.7379191
11.343658 6.983315 3.8329189
12.143658 6.983315 3.965919
12.443658 6.983315 4.0229192
13.943658 6.983315 4.2549191
14.143658 6.983315 4.287919
14.343658 6.983315 4.3199191
14.843658 6.983315 4.3729191
16.143658 6.983315 4.4449191
16.543657 6.983315 4.4379191
16.943659 6.983315 4.4379191
-15.056342 6.8833151 3.1819191
-14.656342 6.8833151 3.3009191
-14.256342 6.8833151 3.5429189
-13.756342 6.8833151 3.6909189
-12.756342 6.8833151 3.574919
-12.556342 6.8833151 3.558919
-11.956342 6.8833151 3.5669191
-11.756342 6.8833151 3.597919
-11.456342 6.8833151 3.6819191
-11.256342 6.8833151 3.745919
-10.956342 6.8833151 3.8759191
-10.756342 6.8833151 3.939919
-10.456342 6.8833151 4.0359192
-9.8563423 6.8833151 4.2529192
-9.6563416 6.8833151 4.3379192
-9.4563417 6.8833151 4.432919
-9.1563416 6.8833151 4.5699191
-8.9563417 6.8833151 4.6419191
-8.0563421 6.8833151 4.8969188
-7.3563418 6.8833151 5.0569191
-5.5563421 6.8833151 5.183919
-5.3563418 6.8833151 5.1599188
-3.8563421 6.8833151 4.8359189
-3.456342 6.8833151 4.7249188
-3.2563419 6.8833151 4.6719189
-3.0563419 6.8833151 4.5989189
-2.8563421 6.8833151 4.531919
-1.856342 6.8833151 4.202919
-0.156342 6.8833151 3.6449189
0.143658 6.8833151 3.5429189
0.54365802 6.8833151 3.5429189
0.74365801 6.8833151 3.5209191
1.2436579 6.8833151 3.541919
1.443658 6.8833151 3.531919
1.643658 6.8833151 3.5339191
1.843658 6.8833151 3.5439191
2.2436581 6.8833151 3.5269189
2.7436581 6.8833151 3.5169189
2.9436581 6.8833151 3.5139191
3.543658 6.8833151 3.5099189
5.1436582 6.8833151 3.4809189
5.343658 6.8833151 3.4839189
5.7436581 6.8833151 3.4549191
6.0436578 6.8833151 3.4489191
6.343658 6.8833151 3.455919
6.5436578 6.8833151 3.482919
6.843658 6.8833151 3.478919
7.6436582 6.8833151 3.5199189
8.0436583 6.8833151 3.524919
8.4436579 6.8833151 3.561919
8.7436581 6.8833151 3.5699191
8.9436579 6.8833151 3.5929191
11.043658 6.8833151 3.785919
11.643658 6.8833151 3.893919
11.943658 6.8833151 3.9349191
12.643658 6.8833151 4.0529189
12.843658 6.8833151 4.1009188
13.043658 6.8833151 4.1299191
13.243658 6.8833151 4.1559191
13.543658 6.8833151 4.208919
13.743658 6.8833151 4.2369189
14.543658 6.8833151 4.3379192
15.143658 6.8833151 4.4109192
15.343658 6.8833151 4.4219189
15.643658 6.8833151 4.4289188
15.943658 6.8833151 4.4539189
16.743658 6.8833151 4.4439192
17.143658 6.8833151 4.4029188
-14.856342 6.7833152 3.2939191
-14.456342 6.7833152 3.5039189
-14.156342 6.7833152 3.6719191
-13.356342 6.7833152 3.6809189
-13.156342 6.7833152 3.660919
-12.956342 6.7833152 3.6389191
-12.356342 6.7833152 3.5009191
-11.056342 6.7833152 3.758919
-10.056342 6.7833152 4.1609192
-8.2563419 6.7833152 4.8649192
-7.8563418 6.7833152 4.9159188
-7.656342 6.7833152 4.9609189
-7.156342 6.7833152 5.0659189
-6.9563422 6.7833152 5.1099191
-6.7563419 6.7833152 5.1149192
-6.5563421 6.7833152 5.1399188
-6.3563418 6.7833152 5.1349192
-5.9563422 6.7833152 5.176919
-5.7563419 6.7833152 5.1689191
-5.0563421 6.7833152 5.0659189
-4.7563419 6.7833152 5.0109191
-4.5563421 6.7833152 4.958919
-3.656342 6.7833152 4.7439189
-2.5563419 6.7833152 4.4379191
-2.3563421 6.7833152 4.354919
-2.0563419 6.7833152 4.2449188
-1.556342 6.7833152 4.0509191
-1.2563421 6.7833152 3.9159191
-1.056342 6.7833152 3.8519189
-0.85634202 6.7833152 3.771919
-0.55634201 6.7833152 3.7039189
-0.35634199 6.7833152 3.709919
0.343658 6.7833152 3.541919
1.043658 6.7833152 3.514919
2.043658 6.7833152 3.5329189
2.4436581 6.7833152 3.514919
3.2436581 6.7833152 3.511919
3.7436581 6.7833152 3.498919
4.0436578 6.7833152 3.5139191
4.343658 6.7833152 3.488919
4.5436578 6.7833152 3.4999189
4.843658 6.7833152 3.4939189
5.5436578 6.7833152 3.492919
7.1436582 6.7833152 3.4879191
7.4436579 6.7833152 3.511919
7.843658 6.7833152 3.5229189
9.1436577 6.7833152 3.6099191
9.3436584 6.7833152 3.620919
9.7436581 6.7833152 3.6559191
9.9436579 6.7833152 3.676919
11.243658 6.7833152 3.821919
12.243658 6.7833152 3.9949191
12.443658 6.7833152 4.0299191
14.043658 6.7833152 4.2849188
14.243658 6.7833152 4.3179188
14.743658 6.7833152 4.3579192
14.943658 6.7833152 4.3839188
16.243658 6.7833152 4.4379191
16.543657 6.7833152 4.4559188
-14.656342 6.6833148 3.4709189
-14.356342 6.6833148 3.6479189
-13.856342 6.6833148 3.669919
-13.656342 6.6833148 3.683919
-12.656342 6.6833148 3.5639191
-12.056342 6.6833148 3.4999189
-11.756342 6.6833148 3.554919
-11.256342 6.6833148 3.6529191
-10.856342 6.6833148 3.797919
-10.656342 6.6833148 3.8719189
-10.456342 6.6833148 3.956919
-10.256342 6.6833148 4.0279188
-9.6563416 6.6833148 4.2549191
-9.2563419 6.6833148 4.4559188
-9.0563421 6.6833148 4.518919
-8.7563419 6.6833148 4.6489191
-8.5563421 6.6833148 4.7209191
-7.4563422 6.6833148 4.9639192
-6.156342 6.6833148 5.1199188
-5.5563421 6.6833148 5.0799189
-5.3563418 6.6833148 5.0609188
-4.3563418 6.6833148 4.8839188
-4.0563421 6.6833148 4.814919
-2.8563421 6.6833148 4.479919
-0.056341998 6.6833148 3.6089189
0.143658 6.6833148 3.482919
0.64365798 6.6833148 3.508919
1.443658 6.6833148 3.502919
1.643658 6.6833148 3.5069189
2.2436581 6.6833148 3.5179191
2.6436579 6.6833148 3.515919
2.843658 6.6833148 3.508919
5.0436578 6.6833148 3.5009191
5.343658 6.6833148 3.4879191
5.843658 6.6833148 3.485919
6.1436582 6.6833148 3.459919
6.343658 6.6833148 3.4869189
6.5436578 6.6833148 3.4819191
6.843658 6.6833148 3.4819191
7.6436582 6.6833148 3.5199189
8.1436577 6.6833148 3.5439191
8.3436584 6.6833148 3.5559189
8.5436583 6.6833148 3.560919
8.7436581 6.6833148 3.5689189
8.9436579 6.6833148 3.5999191
9.5436583 6.6833148 3.6489191
10.143658 6.6833148 3.6709189
10.343658 6.6833148 3.692919
10.543658 6.6833148 3.718919
10.843658 6.6833148 3.765919
11.043658 6.6833148 3.791919
11.443658 6.6833148 3.8749189
11.643658 6.6833148 3.893919
11.843658 6.6833148 3.933919
12.043658 6.6833148 3.969919
12.743658 6.6833148 4.0739188
13.243658 6.6833148 4.169919
13.843658 6.6833148 4.2589188
14.543658 6.6833148 4.3449192
15.243658 6.6833148 4.4179192
15.443658 6.6833148 4.433919
15.943658 6.6833148 4.4349189
16.843658 6.6833148 4.4489188
17.043657 6.6833148 4.4439192
-15.056342 6.5833149 3.1939189
-14.856342 6.5833149 3.452919
-14.056342 6.5833149 3.6579189
-13.456342 6.5833149 3.682919
-13.256342 6.5833149 3.685919
-12.856342 6.5833149 3.5989189
-11.556342 6.5833149 3.5799191
-11.056342 6.5833149 3.683919
-9.9563417 6.5833149 4.1199188
-9.4563417 6.5833149 4.2989192
-8.3563423 6.5833149 4.7529192
-8.0563421 6.5833149 4.7969189
-7.656342 6.5833149 4.8769188
-7.2563419 6.5833149 4.9699192
-7.0563421 6.5833149 4.9979191
-6.656342 6.5833149 5.064919
-5.8563418 6.5833149 5.0679188
-5.156342 6.5833149 4.9759188
-4.9563422 6.5833149 4.9579191
-4.7563419 6.5833149 4.9079189
-4.5563421 6.5833149 4.8889189
-3.7563419 6.5833149 4.7009192
-3.456342 6.5833149 4.6159191
-3.156342 6.5833149 4.5349188
-2.656342 6.5833149 4.3769188
-1.856342 6.5833149 4.1069188
-1.656342 6.5833149 4.0459189
-1.356342 6.5833149 3.8989191
-1.156342 6.5833149 3.837919
-0.85634202 6.5833149 3.7219191
-0.55634201 6.5833149 3.7169189
0.44365799 6.5833149 3.4869189
0.94365799 6.5833149 3.4869189
1.143658 6.5833149 3.491919
3.1436579 6.5833149 3.4819191
3.343658 6.5833149 3.4839189
3.543658 6.5833149 3.5049191
3.7436581 6.5833149 3.491919
3.9436581 6.5833149 3.4969189
4.1436582 6.5833149 3.4949191
4.4436579 6.5833149 3.505919
4.843658 6.5833149 3.5009191
7.0436578 6.5833149 3.4949191
7.2436581 6.5833149 3.5009191
7.4436579 6.5833149 3.5099189
9.3436584 6.5833149 3.6249189
9.7436581 6.5833149 3.643919
11.243658 6.5833149 3.8269191
12.243658 6.5833149 4.0129189
12.543658 6.5833149 4.057919
13.043658 6.5833149 4.1449189
13.543658 6.5833149 4.222919
14.043658 6.5833149 4.2939191
14.843658 6.5833149 4.3859191
15.043658 6.5833149 4.4079189
15.743658 6.5833149 4.4249191
16.143658 6.5833149 4.4349189
16.543657 6.5833149 4.4409189
-14.356342 6.483315 3.607919
-13.856342 6.483315 3.666919
-13.656342 6.483315 3.6709189
-13.056342 6.483315 3.6419189
-12.556342 6.483315 3.5659189
-12.356342 6.483315 3.5179191
-12.156342 6.483315 3.4779191
-11.956342 6.483315 3.475919
-11.256342 6.483315 3.600919
-10.756342 6.483315 3.752919
-10.556342 6.483315 3.8259189
-10.356342 6.483315 3.909919
-10.156342 6.483315 3.991919
-9.1563416 6.483315 4.4059191
-8.9563417 6.483315 4.4649191
-8.7563419 6.483315 4.558919
-8.5563421 6.483315 4.630919
-7.8563418 6.483315 4.8039188
-7.4563422 6.483315 4.8969188
-6.8563418 6.483315 5.0039191
-6.3563418 6.483315 5.057919
-6.156342 6.483315 5.0489192
-5.656342 6.483315 5.0159192
-5.4563422 6.483315 4.9869189
-4.3563418 6.483315 4.820919
-3.956342 6.483315 4.722919
-2.956342 6.483315 4.4379191
-2.3563421 6.483315 4.2399192
-2.0563419 6.483315 4.136919
-0.35634199 6.483315 3.7349191
1.343658 6.483315 3.488919
1.643658 6.483315 3.4939189
1.943658 6.483315 3.4719191
2.1436579 6.483315 3.4969189
2.4436581 6.483315 3.4809189
2.843658 6.483315 3.4869189
4.6436582 6.483315 3.4999189
5.0436578 6.483315 3.502919
5.2436581 6.483315 3.5049191
5.4436579 6.483315 3.4899189
6.6436582 6.483315 3.4809189
6.843658 6.483315 3.492919
7.843658 6.483315 3.528919
8.3436584 6.483315 3.558919
8.5436583 6.483315 3.5639191
8.7436581 6.483315 3.5729189
8.9436579 6.483315 3.5929191
9.1436577 6.483315 3.607919
9.5436583 6.483315 3.6389191
9.9436579 6.483315 3.6709189
10.243658 6.483315 3.699919
10.443658 6.483315 3.718919
10.943658 6.483315 3.7779191
11.543658 6.483315 3.8859191
11.843658 6.483315 3.9409189
12.743658 6.483315 4.0999188
13.243658 6.483315 4.1809192
13.743658 6.483315 4.2439189
14.243658 6.483315 4.3169188
14.443658 6.483315 4.3419189
14.643658 6.483315 4.3639188
15.343658 6.483315 4.4349189
16.343658 6.483315 4.432919
16.743658 6.483315 4.4509192
-14.856342 6.3833151 3.4879191
-14.556342 6.3833151 3.5329189
-14.056342 6.3833151 3.6219189
-11.556342 6.3833151 3.548919
-9.9563417 6.3833151 4.0399189
-9.7563419 6.3833151 4.0999188
-8.3563423 6.3833151 4.6789188
-8.1563416 6.3833151 4.708919
-7.0563421 6.3833151 4.9449191
-5.8563418 6.3833151 4.9909191
-5.2563419 6.3833151 4.926919
-4.9563422 6.3833151 4.8819189
-4.7563419 6.3833151 4.8619189
-4.5563421 6.3833151 4.8249192
-4.156342 6.3833151 4.7329192
-3.656342 6.3833151 4.6089191
-3.456342 6.3833151 4.5559192
-3.2563419 6.3833151 4.4879189
-2.656342 6.3833151 4.3129191
-1.856342 6.3833151 4.0279188
-1.656342 6.3833151 3.9479189
-1.356342 6.3833151 3.821919
-1.156342 6.3833151 3.7469189
-0.95634198 6.3833151 3.709919
-0.75634199 6.3833151 3.7149191
-0.55634201 6.3833151 3.7209189
-0.156342 6.3833151 3.6159191
0.043657999 6.3833151 3.577919
0.24365801 6.3833151 3.5929191
0.54365802 6.3833151 3.492919
0.84365797 6.3833151 3.498919
1.043658 6.3833151 3.475919
3.043658 6.3833151 3.485919
4.343658 6.3833151 3.498919
4.843658 6.3833151 3.4979191
5.6436582 6.3833151 3.502919
6.0436578 6.3833151 3.4769189
6.343658 6.3833151 3.491919
7.1436582 6.3833151 3.508919
7.343658 6.3833151 3.5139191
7.6436582 6.3833151 3.521919
8.1436577 6.3833151 3.537919
9.7436581 6.3833151 3.653919
10.643658 6.3833151 3.7439189
11.243658 6.3833151 3.8419189
12.043658 6.3833151 3.9649191
12.343658 6.3833151 4.0359192
13.043658 6.3833151 4.1479192
13.543658 6.3833151 4.229919
13.943658 6.3833151 4.2919192
14.943658 6.3833151 4.4029188
15.143658 6.3833151 4.4099188
15.543658 6.3833151 4.4219189
15.743658 6.3833151 4.439919
15.943658 6.3833151 4.4239192
16.143658 6.3833151 4.432919
16.543657 6.3833151 4.4509192
17.043657 6.3833151 4.4499192
-15.156342 6.2833152 3.0509191
-13.756342 6.2833152 3.627919
-13.556342 6.2833152 3.6549189
-13.356342 6.2833152 3.6389191
-13.156342 6.2833152 3.6319189
-12.956342 6.2833152 3.607919
-12.656342 6.2833152 3.5469191
-12.356342 6.2833152 3.4949191
-12.156342 6.2833152 3.4549191
-11.756342 6.2833152 3.4969189
-11.256342 6.2833152 3.558919
-11.056342 6.2833152 3.574919
-10.756342 6.2833152 3.686919
-10.456342 6.2833152 3.787919
-10.156342 6.2833152 3.909919
-9.5563421 6.2833152 4.1519189
-9.3563423 6.2833152 4.2329192
-9.1563416 6.2833152 4.3309188
-8.8563423 6.2833152 4.4229188
-8.6563416 6.2833152 4.5289192
-7.9563422 6.2833152 4.7399192
-7.5563421 6.2833152 4.8309188
-6.7563419 6.2833152 4.9649191
-6.5563421 6.2833152 4.9759188
-6.3563418 6.2833152 4.9699192
-6.156342 6.2833152 4.9669189
-5.4563422 6.2833152 4.9189191
-4.3563418 6.2833152 4.7399192
-3.956342 6.2833152 4.650919
-2.8563421 6.2833152 4.3379192
-2.3563421 6.2833152 4.1979189
-0.25634199 6.2833152 3.729919
0.64365798 6.2833152 3.6059189
1.2436579 6.2833152 3.581919
1.443658 6.2833152 3.485919
2.043658 6.2833152 3.4839189
2.343658 6.2833152 3.488919
2.543658 6.2833152 3.4899189
2.7436581 6.2833152 3.482919
3.2436581 6.2833152 3.4769189
3.4436581 6.2833152 3.4999189
3.6436579 6.2833152 3.4949191
3.9436581 6.2833152 3.4949191
4.1436582 6.2833152 3.492919
4.6436582 6.2833152 3.5039189
5.1436582 6.2833152 3.514919
5.4436579 6.2833152 3.5069189
6.6436582 6.2833152 3.4999189
6.9436579 6.2833152 3.505919
7.843658 6.2833152 3.5369191
8.3436584 6.2833152 3.5669191
9.1436577 6.2833152 3.6119189
9.3436584 6.2833152 3.627919
9.5436583 6.2833152 3.6589191
9.9436579 6.2833152 3.6939189
10.143658 6.2833152 3.6919191
10.443658 6.2833152 3.7249191
11.543658 6.2833152 3.8879189
11.843658 6.2833152 3.9579189
12.543658 6.2833152 4.0599189
12.743658 6.2833152 4.110919
13.243658 6.2833152 4.1939192
14.143658 6.2833152 4.3199191
14.343658 6.2833152 4.334919
14.743658 6.2833152 4.3949189
-15.056342 6.1833148 3.2279191
-14.856342 6.1833148 3.376919
-14.656342 6.1833148 3.409919
-14.356342 6.1833148 3.475919
-14.156342 6.1833148 3.5279191
-13.956342 6.1833148 3.5799191
-11.956342 6.1833148 3.455919
-9.9563417 6.1833148 3.959919
-9.7563419 6.1833148 4.0289192
-8.4563417 6.1833148 4.537919
-7.2563419 6.1833148 4.853919
-6.9563422 6.1833148 4.913919
-5.656342 6.1833148 4.8879189
-5.2563419 6.1833148 4.840919
-5.0563421 6.1833148 4.8139191
-4.7563419 6.1833148 4.7709188
-4.5563421 6.1833148 4.7369189
-4.156342 6.1833148 4.6599188
-3.5563419 6.1833148 4.505919
-3.156342 6.1833148 4.3949189
-1.956342 6.1833148 4.0009189
-1.556342 6.1833148 3.8419189
-1.356342 6.1833148 3.771919
-0.95634198 6.1833148 3.7239189
-0.65634203 6.1833148 3.7209189
-0.45634201 6.1833148 3.7349191
-0.056341998 6.1833148 3.620919
0.24365801 6.1833148 3.5869191
0.44365799 6.1833148 3.5999191
1.7436579 6.1833148 3.4839189
4.843658 6.1833148 3.5229189
5.843658 6.1833148 3.4939189
6.343658 6.1833148 3.4939189
7.2436581 6.1833148 3.5179191
8.1436577 6.1833148 3.5499189
8.5436583 6.1833148 3.5699191
8.7436581 6.1833148 3.5929191
8.9436579 6.1833148 3.597919
10.643658 6.1833148 3.7539189
10.843658 6.1833148 3.785919
11.043658 6.1833148 3.7999189
11.343658 6.1833148 3.8649189
12.043658 6.1833148 3.991919
12.343658 6.1833148 4.0369191
13.743658 6.1833148 4.2719188
14.543658 6.1833148 4.3689189
14.943658 6.1833148 4.4109192
15.243658 6.1833148 4.4159188
16.243658 6.1833148 4.4299188
16.443659 6.1833148 4.439919
16.743658 6.1833148 4.4609189
17.043657 6.1833148 4.4209189
-13.656342 6.0833149 3.6099191
-13.256342 6.0833149 3.5929191
-13.056342 6.0833149 3.5759189
-11.656342 6.0833149 3.4839189
-11.456342 6.0833149 3.4979191
-11.256342 6.0833149 3.515919
-11.056342 6.0833149 3.524919
-10.856342 6.0833149 3.6029191
-10.456342 6.0833149 3.7109189
-10.256342 6.0833149 3.798919
-9.5563421 6.0833149 4.0729189
-9.3563423 6.0833149 4.156919
-9.0563421 6.0833149 4.2849188
-8.8563423 6.0833149 4.3629189
-8.6563416 6.0833149 4.4319191
-8.2563419 6.0833149 4.564919
-7.8563418 6.0833149 4.6889191
-7.4563422 6.0833149 4.7929192
-6.5563421 6.0833149 4.8859191
-6.156342 6.0833149 4.8759189
-5.8563418 6.0833149 4.8639188
-5.4563422 6.0833149 4.8199191
-4.3563418 6.0833149 4.6649189
-3.8563421 6.0833149 4.5539188
-3.3563421 6.0833149 4.426919
-2.8563421 6.0833149 4.2799191
-2.5563419 6.0833149 4.182919
-2.3563421 6.0833149 4.1139188
-2.156342 6.0833149 4.0369191
-1.7563421 6.0833149 3.8789189
-1.156342 6.0833149 3.7219191
0.64365798 6.0833149 3.5869191
0.84365797 6.0833149 3.594919
1.043658 6.0833149 3.5969191
1.2436579 6.0833149 3.6149189
1.543658 6.0833149 3.4809189
1.943658 6.0833149 3.4769189
2.4436581 6.0833149 3.482919
2.9436581 6.0833149 3.485919
3.343658 6.0833149 3.5039189
3.843658 6.0833149 3.5049191
4.4436579 6.0833149 3.4869189
4.6436582 6.0833149 3.5399189
5.5436578 6.0833149 3.5099189
6.1436582 6.0833149 3.4879191
6.9436579 6.0833149 3.508919
7.6436582 6.0833149 3.525919
7.843658 6.0833149 3.525919
9.1436577 6.0833149 3.616919
9.6436577 6.0833149 3.6559191
9.8436584 6.0833149 3.6749189
10.143658 6.0833149 3.686919
11.543658 6.0833149 3.903919
12.643658 6.0833149 4.0999188
12.843658 6.0833149 4.1429191
13.043658 6.0833149 4.1649189
13.243658 6.0833149 4.2019191
13.443658 6.0833149 4.2369189
14.043658 6.0833149 4.3139191
14.343658 6.0833149 4.3629189
15.443658 6.0833149 4.4379191
15.743658 6.0833149 4.4219189
15.943658 6.0833149 4.4209189
-15.256342 5.983315 2.863919
-15.056342 5.983315 3.0439191
-14.856342 5.983315 3.212919
-14.656342 5.983315 3.284919
-14.356342 5.983315 3.3919189
-14.056342 5.983315 3.4879191
-12.856342 5.983315 3.5339191
-12.456342 5.983315 3.469919
-12.256342 5.983315 3.423919
-9.8563423 5.983315 3.9259191
-8.0563421 5.983315 4.6009188
-7.656342 5.983315 4.7049189
-7.0563421 5.983315 4.8099189
-6.8563418 5.983315 4.8299189
-6.3563418 5.983315 4.8449192
-5.656342 5.983315 4.8119192
-5.0563421 5.983315 4.7369189
-4.5563421 5.983315 4.6649189
-3.0563419 5.983315 4.3029189
-1.556342 5.983315 3.7799189
-0.85634202 5.983315 3.7209189
-0.55634201 5.983315 3.719919
-0.156342 5.983315 3.7239189
0.043657999 5.983315 3.7149191
2.1436579 5.983315 3.491919
2.7436581 5.983315 3.498919
3.1436579 5.983315 3.485919
3.543658 5.983315 3.478919
4.2436581 5.983315 3.478919
5.0436578 5.983315 3.515919
5.9436579 5.983315 3.5049191
6.4436579 5.983315 3.5009191
6.7436581 5.983315 3.502919
7.2436581 5.983315 3.511919
7.4436579 5.983315 3.5399189
8.2436581 5.983315 3.561919
8.7436581 5.983315 3.5989189
9.4436579 5.983315 3.6419189
10.343658 5.983315 3.719919
10.943658 5.983315 3.8029189
11.343658 5.983315 3.8849189
11.843658 5.983315 3.9709189
12.143658 5.983315 4.0169191
13.843658 5.983315 4.3009191
14.843658 5.983315 4.4019189
16.143658 5.983315 4.4409189
16.443659 5.983315 4.4429188
16.843658 5.983315 4.4719191
-13.656342 5.8833151 3.5689189
-13.356342 5.8833151 3.564919
-12.056342 5.8833151 3.419919
-11.856342 5.8833151 3.4049189
-11.456342 5.8833151 3.4209189
-11.056342 5.8833151 3.465919
-10.756342 5.8833151 3.547919
-10.356342 5.8833151 3.6889191
-10.056342 5.8833151 3.834919
-9.5563421 5.8833151 3.9819191
-9.3563423 5.8833151 4.0739188
-8.7563419 5.8833151 4.3029189
-8.5563421 5.8833151 4.3839188
-8.3563423 5.8833151 4.445919
-7.3563418 5.8833151 4.7309189
-6.656342 5.8833151 4.794919
-6.156342 5.8833151 4.7899189
-5.8563418 5.8833151 4.781919
-5.2563419 5.8833151 4.702919
-4.2563419 5.8833151 4.5539188
-3.956342 5.8833151 4.498919
-3.656342 5.8833151 4.4289188
-2.0563419 5.8833151 3.9319191
0.44365799 5.8833151 3.600919
0.74365801 5.8833151 3.5999191
1.643658 5.8833151 3.4969189
2.543658 5.8833151 3.485919
2.9436581 5.8833151 3.485919
4.0436578 5.8833151 3.4869189
4.5436578 5.8833151 3.5399189
4.843658 5.8833151 3.5279191
6.1436582 5.8833151 3.4939189
7.0436578 5.8833151 3.505919
7.6436582 5.8833151 3.5229189
7.843658 5.8833151 3.537919
8.5436583 5.8833151 3.5899191
9.0436583 5.8833151 3.6119189
9.6436577 5.8833151 3.660919
10.043658 5.8833151 3.7019191
10.743658 5.8833151 3.785919
11.143658 5.8833151 3.8429191
12.343658 5.8833151 4.0559192
12.743658 5.8833151 4.1339188
13.543658 5.8833151 4.2629189
14.143658 5.8833151 4.3359189
14.543658 5.8833151 4.373919
15.243658 5.8833151 4.406919
