# .PCD v0.7 - Point Cloud Data file format
VERSION 0.7
FIELDS x y z
SIZE 4 4 4
TYPE F F F
COUNT 1 1 1
WIDTH 1591
HEIGHT 1
VIEWPOINT 0 0 0 1 0 0 0
POINTS 1591
DATA ascii
6.2974219 -1.119904 4.527709
6.2974219 -1.019904 4.5097089
6.2974219 -0.91990399 4.5047088
6.2974219 -0.81990403 4.4837089
6.2974219 -0.71990401 4.4677091
6.2974219 -0.61990398 4.4567089
6.2974219 -0.51990402 4.4607091
6.2974219 -0.41990399 4.4447088
6.2974219 -0.319904 4.4377089
6.2974219 -0.21990401 4.4167089
6.2974219 -0.119904 4.3977089
6.2974219 -0.019904001 4.3847089
6.2974219 0.080095999 4.3677092
6.2974219 0.180096 4.3597088
6.2974219 0.28009599 4.343709
6.2974219 0.38009599 4.3277092
6.2974219 0.48009601 4.3187089
6.2974219 0.58009601 4.283709
6.2974219 0.68009597 4.2727089
6.2974219 0.78009599 4.2487092
6.2974219 0.88009602 4.2347088
6.2974219 0.98009598 4.212709
6.2974219 1.080096 4.205709
6.2974219 1.180096 4.178709
6.2974219 1.2800961 4.165709
6.2974219 1.380096 4.146709
6.2974219 1.480096 4.1117091
6.2974219 1.580096 4.100709
6.2974219 1.680096 4.0687089
6.2974219 1.7800961 4.0517092
6.2974219 1.880096 4.0517092
6.2974219 1.980096 4.0117092
6.2974219 2.080096 3.9997089
6.2974219 2.1800959 3.984709
6.2974219 2.2800961 3.955709
6.2974219 2.380096 3.941709
6.2974219 2.4800961 3.9237089
6.2974219 2.580096 3.889709
6.2974219 2.6800959 3.869709
6.2974219 2.7800961 3.846709
6.2974219 2.880096 3.8197091
6.2974219 2.9800961 3.797709
6.2974219 3.080096 3.7827089
6.2974219 3.380096 3.718709
6.2974219 3.580096 3.6747091
6.2974219 3.6800959 3.652709
6.2974219 4.2800961 3.5357089
6.2974219 4.4800959 3.475709
6.2974219 4.6800961 3.4397089
6.2974219 4.9800959 3.3887091
6.2974219 5.1800961 3.3477089
6.2974219 5.380096 3.2887089
6.2974219 5.5800958 3.2497089
6.2974219 6.1800961 3.1317091
6.2974219 6.5800958 3.0527091
6.2974219 6.9800959 2.974709
6.2974219 7.1800961 2.938709
6.2974219 7.380096 2.882709
6.2974219 7.5800958 2.843709
6.2974219 7.7800961 2.8127091
6.2974219 8.0800962 2.7277091
6.2974219 8.4800959 2.6537089
6.2974219 8.8800964 2.5917089
6.2974219 9.0800962 2.5597091
6.2974219 9.6800957 2.452709
6.2974219 10.180096 2.376709
6.2974219 11.780096 2.142709
6.2974219 12.080096 2.100709
6.2974219 12.280096 2.073709
6.2974219 12.880096 2.0067091
6.2974219 13.780096 1.912709
6.2974219 14.280096 1.8707089
6.2974219 15.180096 1.832709
6.2974219 15.480096 1.818709
6.2974219 15.880096 1.826709
6.2974219 16.180096 1.834709
6.2974219 16.580095 1.831709
6.2974219 16.980097 1.844709
6.2974219 17.780096 1.871709
6.2974219 18.080095 1.7457089
6.2974219 18.780096 1.265709
6.197422 -27.219904 -3.9112909
6.197422 -27.119904 -3.7792909
6.197422 -27.019903 -3.6572909
6.197422 -26.919905 -3.541291
6.197422 -26.719904 -3.225291
6.197422 -26.519903 -3.0202911
6.197422 -26.119904 -2.9202909
6.197422 -25.819904 -2.8492911
6.197422 -25.519903 -2.844291
6.197422 -25.319904 -2.8002911
6.197422 -25.019903 -2.7572911
6.197422 -24.719904 -2.706291
6.197422 -24.319904 -2.6292911
6.197422 -24.119904 -2.587291
6.197422 -23.919905 -2.547291
6.197422 -23.619904 -2.4742911
6.197422 -22.819904 -2.2542911
6.197422 -22.419905 -2.114291
6.197422 -22.119904 -2.0172911
6.197422 -21.619904 -1.836291
6.197422 -21.319904 -1.704291
6.197422 -21.119904 -1.612291
6.197422 -20.919905 -1.538291
6.197422 -20.719904 -1.440291
6.197422 -20.519903 -1.355291
6.197422 -20.019903 -1.1422909
6.197422 -19.819904 -1.053291
6.197422 -19.519903 -0.94129097
6.197422 -19.019903 -0.75529099
6.197422 -15.019904 1.003709
6.197422 -13.319904 1.813709
6.197422 -12.619904 2.1477089
6.197422 -12.019904 2.429709
6.197422 -11.719904 2.5757091
6.197422 -11.519904 2.6667089
6.197422 -11.019904 2.882709
6.197422 -10.619904 3.0497091
6.197422 -9.6199036 3.448709
6.197422 -9.4199038 3.520709
6.197422 -9.0199041 3.6547091
6.197422 -8.7199039 3.761709
6.197422 -8.5199041 3.8287089
6.197422 -8.3199043 3.879709
6.197422 -7.9199042 4.0007091
6.197422 -7.8199039 4.0297089
6.197422 -7.7199039 4.0587091
6.197422 -7.619904 4.086709
6.197422 -7.5199041 4.1077089
6.197422 -7.4199042 4.1387091
6.197422 -7.3199039 4.1557088
6.197422 -7.2199039 4.172709
6.197422 -7.119904 4.1957092
6.197422 -7.0199041 4.2067089
6.197422 -6.9199042 4.2437091
6.197422 -6.8199039 4.2617092
6.197422 -6.7199039 4.2797089
6.197422 -6.619904 4.3097091
6.197422 -6.5199041 4.3127089
6.197422 -6.4199042 4.3387089
6.197422 -6.3199039 4.3757091
6.197422 -6.2199039 4.3847089
6.197422 -6.119904 4.3977089
6.197422 -6.0199041 4.4127092
6.197422 -5.9199042 4.4367089
6.197422 -5.8199039 4.448709
6.197422 -5.7199039 4.4567089
6.197422 -5.619904 4.481709
6.197422 -5.5199041 4.4987092
6.197422 -5.4199042 4.5107088
6.197422 -5.3199039 4.5237088
6.197422 -5.2199039 4.5327091
6.197422 -5.119904 4.5227089
6.197422 -5.0199041 4.5557089
6.197422 -4.9199042 4.5557089
6.197422 -4.8199039 4.5597091
6.197422 -4.7199039 4.553709
6.197422 -4.619904 4.5827088
6.197422 -4.5199041 4.5787091
6.197422 -4.4199042 4.5927091
6.197422 -4.3199039 4.587709
6.197422 -4.2199039 4.5897088
6.197422 -4.119904 4.5957088
6.197422 -4.0199041 4.5977092
6.197422 -3.919904 4.599709
6.197422 -3.8199041 4.6027088
6.197422 -3.7199039 4.600709
6.197422 -3.619904 4.6057091
6.197422 -3.5199039 4.613709
6.197422 -3.419904 4.6117091
6.197422 -3.3199041 4.606709
6.197422 -3.2199039 4.6117091
6.197422 -3.119904 4.6307092
6.197422 -3.0199039 4.619709
6.197422 -2.919904 4.606709
6.197422 -2.8199041 4.6097088
6.197422 -2.7199039 4.6027088
6.197422 -2.619904 4.6037092
6.197422 -2.5199039 4.600709
6.197422 -2.419904 4.5927091
6.197422 -2.3199041 4.6037092
6.197422 -2.2199039 4.586709
6.197422 -2.119904 4.5787091
6.197422 -2.0199039 4.5697088
6.197422 -1.919904 4.566709
6.197422 -1.819904 4.5617089
6.197422 -1.7199039 4.553709
6.197422 -1.619904 4.5487089
6.197422 -1.519904 4.5427089
6.197422 -1.419904 4.5307088
6.197422 -1.319904 4.521709
6.197422 -1.2199039 4.514709
6.197422 -1.119904 4.5107088
6.197422 -1.019904 4.487709
6.197422 -0.91990399 4.4907088
6.197422 -0.81990403 4.4837089
6.197422 -0.71990401 4.4707088
6.197422 -0.61990398 4.4677091
6.197422 -0.51990402 4.4497089
6.197422 -0.41990399 4.4277091
6.197422 -0.319904 4.4337091
6.197422 -0.21990401 4.4117088
6.197422 -0.119904 4.3987088
6.197422 -0.019904001 4.3737092
6.197422 0.080095999 4.362709
6.197422 0.180096 4.3557091
6.197422 0.28009599 4.3337088
6.197422 0.38009599 4.3217092
6.197422 0.48009601 4.2927089
6.197422 0.58009601 4.2817092
6.197422 0.68009597 4.2637091
6.197422 0.78009599 4.257709
6.197422 0.88009602 4.2327089
6.197422 0.98009598 4.205709
6.197422 1.080096 4.191709
6.197422 1.180096 4.1777091
6.197422 1.2800961 4.165709
6.197422 1.380096 4.1517091
6.197422 1.480096 4.1247091
6.197422 1.580096 4.100709
6.197422 1.680096 4.0787091
6.197422 1.7800961 4.0637088
6.197422 1.880096 4.053709
6.197422 1.980096 4.0287089
6.197422 2.080096 4.001709
6.197422 2.1800959 3.974709
6.197422 2.2800961 3.962709
6.197422 2.380096 3.952709
6.197422 2.4800961 3.9207089
6.197422 2.580096 3.8877089
6.197422 2.6800959 3.8707089
6.197422 2.7800961 3.8557091
6.197422 2.880096 3.820709
6.197422 3.1800959 3.770709
6.197422 3.4800961 3.682709
6.197422 3.7800961 3.642709
6.197422 3.9800961 3.5947089
6.197422 4.0800958 3.560709
6.197422 4.380096 3.5027089
6.197422 4.5800958 3.458709
6.197422 4.7800961 3.4247091
6.197422 5.0800958 3.353709
6.197422 5.2800961 3.3227091
6.197422 5.4800959 3.2757089
6.197422 5.6800961 3.2327089
6.197422 5.880096 3.1897089
6.197422 6.0800958 3.1507089
6.197422 6.2800961 3.1147089
6.197422 6.4800959 3.067709
6.197422 6.6800961 3.0387089
6.197422 6.880096 2.9907091
6.197422 7.2800961 2.9137089
6.197422 7.4800959 2.879709
6.197422 7.6800961 2.8147089
6.197422 7.9800959 2.770709
6.197422 8.3800964 2.698709
6.197422 8.6800957 2.6317091
6.197422 9.3800964 2.507709
6.197422 9.8800964 2.4167089
6.197422 10.480096 2.3297091
6.197422 10.680096 2.2987089
6.197422 10.980096 2.254709
6.197422 11.280096 2.2047091
6.197422 11.480096 2.192709
6.197422 12.480096 2.054709
6.197422 14.980096 1.8427089
6.197422 16.380096 1.817709
6.197422 16.780096 1.834709
6.197422 17.280096 1.8427089
6.197422 17.480097 1.844709
6.197422 17.980097 1.8297091
6.197422 18.280096 1.6077091
6.197422 18.480097 1.408709
6.0974221 -27.319904 -3.922291
6.0974221 -27.219904 -3.8452909
6.0974221 -27.119904 -3.7082911
6.0974221 -27.019903 -3.5422909
6.0974221 -26.919905 -3.387291
6.0974221 -26.819904 -3.2672911
6.0974221 -26.619904 -3.0882909
6.0974221 -26.319904 -2.9352911
6.0974221 -26.019903 -2.900291
6.0974221 -25.719904 -2.8582909
6.0974221 -25.419905 -2.811291
6.0974221 -25.219904 -2.785291
6.0974221 -24.919905 -2.732291
6.0974221 -24.619904 -2.6812911
6.0974221 -24.419905 -2.633291
6.0974221 -24.219904 -2.6062911
6.0974221 -24.019903 -2.5632911
6.0974221 -23.819904 -2.518291
6.0974221 -23.519903 -2.4352911
6.0974221 -23.319904 -2.380291
6.0974221 -23.119904 -2.334291
6.0974221 -22.619904 -2.1852911
6.0974221 -22.019903 -1.955291
6.0974221 -21.819904 -1.867291
6.0974221 -21.519903 -1.7672909
6.0974221 -17.119904 0.026709
6.0974221 -14.619904 1.209709
6.0974221 -14.019904 1.488709
6.0974221 -13.719904 1.629709
6.0974221 -13.119904 1.920709
6.0974221 -12.819904 2.0727091
6.0974221 -12.419904 2.2427089
6.0974221 -12.219904 2.336709
6.0974221 -11.919904 2.485709
6.0974221 -11.419904 2.701709
6.0974221 -11.219904 2.7957089
6.0974221 -10.919904 2.9307089
6.0974221 -10.419904 3.1507089
6.0974221 -10.219904 3.221709
6.0974221 -10.019904 3.3067091
6.0974221 -9.8199043 3.385709
6.0974221 -9.5199041 3.494709
6.0974221 -9.2199039 3.6017089
6.0974221 -8.8199043 3.7107091
6.0974221 -8.6199036 3.7757089
6.0974221 -8.4199038 3.856709
6.0974221 -8.2199039 3.9167089
6.0974221 -8.1199036 3.9317091
6.0974221 -8.0199041 3.9727089
6.0974221 -7.9199042 3.9967091
6.0974221 -7.8199039 4.021709
6.0974221 -7.7199039 4.0427089
6.0974221 -7.619904 4.073709
6.0974221 -7.5199041 4.1107092
6.0974221 -7.4199042 4.1247091
6.0974221 -7.3199039 4.1607089
6.0974221 -7.2199039 4.1767092
6.0974221 -7.119904 4.1847091
6.0974221 -7.0199041 4.2077088
6.0974221 -6.9199042 4.2287092
6.0974221 -6.8199039 4.2597089
6.0974221 -6.7199039 4.2667089
6.0974221 -6.619904 4.290709
6.0974221 -6.5199041 4.304709
6.0974221 -6.4199042 4.3187089
6.0974221 -6.3199039 4.3297091
6.0974221 -6.2199039 4.3677092
6.0974221 -6.119904 4.3757091
6.0974221 -6.0199041 4.3927088
6.0974221 -5.9199042 4.4107089
6.0974221 -5.8199039 4.4257088
6.0974221 -5.7199039 4.442709
6.0974221 -5.619904 4.462709
6.0974221 -5.5199041 4.461709
6.0974221 -5.4199042 4.481709
6.0974221 -5.3199039 4.501709
6.0974221 -5.2199039 4.4957089
6.0974221 -5.119904 4.5227089
6.0974221 -5.0199041 4.5427089
6.0974221 -4.9199042 4.5437088
6.0974221 -4.8199039 4.5557089
6.0974221 -4.7199039 4.567709
6.0974221 -4.619904 4.5697088
6.0974221 -4.5199041 4.5887089
6.0974221 -4.4199042 4.5897088
6.0974221 -4.3199039 4.5947089
6.0974221 -4.2199039 4.5897088
6.0974221 -4.119904 4.5977092
6.0974221 -4.0199041 4.5947089
6.0974221 -3.919904 4.6057091
6.0974221 -3.8199041 4.599709
6.0974221 -3.7199039 4.5987091
6.0974221 -3.619904 4.6097088
6.0974221 -3.5199039 4.6117091
6.0974221 -3.419904 4.600709
6.0974221 -3.3199041 4.6107092
6.0974221 -3.2199039 4.6117091
6.0974221 -3.119904 4.6027088
6.0974221 -3.0199039 4.600709
6.0974221 -2.919904 4.6097088
6.0974221 -2.8199041 4.6167092
6.0974221 -2.7199039 4.6087089
6.0974221 -2.619904 4.6027088
6.0974221 -2.5199039 4.5917091
6.0974221 -2.419904 4.5897088
6.0974221 -2.3199041 4.587709
6.0974221 -2.2199039 4.5837088
6.0974221 -2.119904 4.5947089
6.0974221 -2.0199039 4.5587091
6.0974221 -1.919904 4.5597091
6.0974221 -1.819904 4.5597091
6.0974221 -1.7199039 4.5487089
6.0974221 -1.619904 4.5447092
6.0974221 -1.519904 4.527709
6.0974221 -1.419904 4.521709
6.0974221 -1.319904 4.5157089
6.0974221 -1.2199039 4.501709
6.0974221 -1.119904 4.4977088
6.0974221 -1.019904 4.487709
6.0974221 -0.91990399 4.4717088
6.0974221 -0.81990403 4.4737091
6.0974221 -0.71990401 4.4737091
6.0974221 -0.61990398 4.4507089
6.0974221 -0.51990402 4.4347091
6.0974221 -0.41990399 4.442709
6.0974221 -0.319904 4.4107089
6.0974221 -0.21990401 4.3987088
6.0974221 -0.119904 4.3867092
6.0974221 -0.019904001 4.3787088
6.0974221 0.080095999 4.3647089
6.0974221 0.180096 4.3427091
6.0974221 0.28009599 4.3217092
6.0974221 0.38009599 4.3227091
6.0974221 0.48009601 4.2987089
6.0974221 0.58009601 4.271709
6.0974221 0.68009597 4.2657089
6.0974221 0.78009599 4.237709
6.0974221 0.88009602 4.2217088
6.0974221 0.98009598 4.2007089
6.0974221 1.080096 4.1847091
6.0974221 1.180096 4.1777091
6.0974221 1.2800961 4.1717091
6.0974221 1.380096 4.1407089
6.0974221 1.480096 4.1307092
6.0974221 1.580096 4.1077089
6.0974221 1.680096 4.0837088
6.0974221 1.7800961 4.066709
6.0974221 1.880096 4.0447092
6.0974221 1.980096 4.0257092
6.0974221 2.080096 4.021709
6.0974221 2.1800959 3.981709
6.0974221 2.2800961 3.9597089
6.0974221 2.380096 3.938709
6.0974221 2.4800961 3.9177091
6.0974221 2.580096 3.9007089
6.0974221 2.6800959 3.8747089
6.0974221 2.7800961 3.850709
6.0974221 2.880096 3.820709
6.0974221 2.9800961 3.8097091
6.0974221 3.080096 3.7927091
6.0974221 3.1800959 3.7757089
6.0974221 3.2800961 3.728709
6.0974221 4.1800961 3.5387089
6.0974221 4.4800959 3.4727089
6.0974221 4.6800961 3.4167089
6.0974221 4.9800959 3.366709
6.0974221 5.1800961 3.3227091
6.0974221 5.5800958 3.2397089
6.0974221 5.7800961 3.1977091
6.0974221 5.9800959 3.165709
6.0974221 6.1800961 3.1207089
6.0974221 6.380096 3.0847089
6.0974221 6.5800958 3.044709
6.0974221 6.7800961 2.991709
6.0974221 7.0800958 2.935709
6.0974221 7.380096 2.908709
6.0974221 7.5800958 2.8577089
6.0974221 7.880096 2.800709
6.0974221 8.0800962 2.7507091
6.0974221 8.2800961 2.731709
6.0974221 8.4800959 2.691709
6.0974221 8.9800959 2.5987091
6.0974221 9.1800957 2.553709
6.0974221 10.080096 2.3917091
6.0974221 11.980096 2.103709
6.0974221 12.180096 2.0887091
6.0974221 12.680096 2.0227089
6.0974221 12.880096 2.0067091
6.0974221 13.080096 1.993709
6.0974221 13.280096 1.966709
6.0974221 13.480096 1.960709
6.0974221 13.680096 1.940709
6.0974221 14.180096 1.884709
6.0974221 14.380096 1.8707089
6.0974221 14.680096 1.861709
6.0974221 15.380096 1.843709
6.0974221 15.680096 1.837709
6.0974221 15.980096 1.828709
6.0974221 17.780096 1.838709
6.0974221 18.780096 1.572709
5.9974222 -27.319904 -3.883291
5.9974222 -27.219904 -3.8612909
5.9974222 -27.119904 -3.6982911
5.9974222 -27.019903 -3.514291
5.9974222 -26.919905 -3.393291
5.9974222 -26.819904 -3.314291
5.9974222 -26.719904 -3.216291
5.9974222 -26.619904 -3.123291
5.9974222 -26.519903 -3.0492909
5.9974222 -26.419905 -2.9832909
5.9974222 -26.119904 -2.9202909
5.9974222 -25.819904 -2.857291
5.9974222 -25.519903 -2.8232911
5.9974222 -25.319904 -2.791291
5.9974222 -25.019903 -2.7562909
5.9974222 -24.719904 -2.6802909
5.9974222 -24.519903 -2.650291
5.9974222 -24.319904 -2.6112909
5.9974222 -24.119904 -2.570291
5.9974222 -23.919905 -2.518291
5.9974222 -23.619904 -2.459291
5.9974222 -23.419905 -2.396291
5.9974222 -22.919905 -2.2542911
5.9974222 -22.719904 -2.196291
5.9974222 -22.419905 -2.116291
5.9974222 -22.219904 -2.0002911
5.9974222 -20.819904 -1.4582911
5.9974222 -20.619904 -1.362291
5.9974222 -20.319904 -1.262291
5.9974222 -20.119904 -1.167291
5.9974222 -18.419905 -0.48229101
5.9974222 -15.319904 0.89470899
5.9974222 -14.319904 1.368709
5.9974222 -13.519904 1.737709
5.9974222 -13.319904 1.850709
5.9974222 -10.719904 3.0237091
5.9974222 -10.519904 3.0947089
5.9974222 -10.119904 3.270709
5.9974222 -9.6199036 3.4607091
5.9974222 -9.3199043 3.547709
5.9974222 -9.1199036 3.6407089
5.9974222 -8.9199038 3.668709
5.9974222 -8.7199039 3.7427089
5.9974222 -8.5199041 3.813709
5.9974222 -8.2199039 3.908709
5.9974222 -7.7199039 4.0427089
5.9974222 -7.5199041 4.0847092
5.9974222 -7.4199042 4.1057091
5.9974222 -7.3199039 4.1437092
5.9974222 -7.2199039 4.1477089
5.9974222 -7.119904 4.1837091
5.9974222 -7.0199041 4.2007089
5.9974222 -6.9199042 4.2227092
5.9974222 -6.8199039 4.2337089
5.9974222 -6.7199039 4.2547088
5.9974222 -6.619904 4.2727089
5.9974222 -6.5199041 4.3017092
5.9974222 -6.4199042 4.3297091
5.9974222 -6.3199039 4.3357091
5.9974222 -6.2199039 4.3427091
5.9974222 -6.119904 4.3677092
5.9974222 -6.0199041 4.3907089
5.9974222 -5.9199042 4.4047089
5.9974222 -5.8199039 4.4177089
5.9974222 -5.7199039 4.4367089
5.9974222 -5.619904 4.4507089
5.9974222 -5.5199041 4.4667091
5.9974222 -5.4199042 4.4837089
5.9974222 -5.3199039 4.4907088
5.9974222 -5.2199039 4.5047088
5.9974222 -5.119904 4.514709
5.9974222 -5.0199041 4.5327091
5.9974222 -4.9199042 4.5267091
5.9974222 -4.8199039 4.5417089
5.9974222 -4.7199039 4.5567088
5.9974222 -4.619904 4.5617089
5.9974222 -4.5199041 4.5727091
5.9974222 -4.4199042 4.5747089
5.9974222 -4.3199039 4.5757089
5.9974222 -4.2199039 4.5837088
5.9974222 -4.119904 4.593709
5.9974222 -4.0199041 4.5787091
5.9974222 -3.919904 4.5837088
5.9974222 -3.8199041 4.5917091
5.9974222 -3.7199039 4.5977092
5.9974222 -3.619904 4.593709
5.9974222 -3.5199039 4.5987091
5.9974222 -3.419904 4.6047091
5.9974222 -3.3199041 4.6057091
5.9974222 -3.2199039 4.6117091
5.9974222 -3.119904 4.6087089
5.9974222 -3.0199039 4.600709
5.9974222 -2.919904 4.600709
5.9974222 -2.8199041 4.6117091
5.9974222 -2.7199039 4.6177092
5.9974222 -2.619904 4.5957088
5.9974222 -2.5199039 4.586709
5.9974222 -2.419904 4.5947089
5.9974222 -2.3199041 4.5847092
5.9974222 -2.2199039 4.5697088
5.9974222 -2.119904 4.5587091
5.9974222 -2.0199039 4.5567088
5.9974222 -1.919904 4.5587091
5.9974222 -1.819904 4.5507088
5.9974222 -1.7199039 4.5447092
5.9974222 -1.619904 4.5327091
5.9974222 -1.519904 4.5287089
5.9974222 -1.419904 4.5197091
5.9974222 -1.319904 4.5047088
5.9974222 -1.2199039 4.508709
5.9974222 -1.119904 4.4977088
5.9974222 -1.019904 4.4837089
5.9974222 -0.91990399 4.4727092
5.9974222 -0.81990403 4.4727092
5.9974222 -0.71990401 4.4437089
5.9974222 -0.61990398 4.4387088
5.9974222 -0.51990402 4.428709
5.9974222 -0.41990399 4.4147091
5.9974222 -0.319904 4.409709
5.9974222 -0.21990401 4.3907089
5.9974222 -0.119904 4.382709
5.9974222 -0.019904001 4.3687091
5.9974222 0.080095999 4.3537092
5.9974222 0.180096 4.3467088
5.9974222 0.28009599 4.317709
5.9974222 0.38009599 4.3007088
5.9974222 0.48009601 4.283709
5.9974222 0.58009601 4.2667089
5.9974222 0.68009597 4.2467089
5.9974222 0.78009599 4.2307091
5.9974222 0.88009602 4.2197089
5.9974222 0.98009598 4.2137089
5.9974222 1.080096 4.178709
5.9974222 1.180096 4.1617088
5.9974222 1.2800961 4.1447091
5.9974222 1.380096 4.146709
5.9974222 1.480096 4.112709
5.9974222 1.580096 4.099709
5.9974222 1.680096 4.0757089
5.9974222 1.7800961 4.0587091
5.9974222 1.880096 4.0367088
5.9974222 1.980096 4.0127091
5.9974222 2.080096 4.0007091
5.9974222 2.1800959 3.9777091
5.9974222 2.2800961 3.961709
5.9974222 2.380096 3.938709
5.9974222 2.4800961 3.925709
5.9974222 2.580096 3.9017091
5.9974222 2.6800959 3.863709
5.9974222 2.7800961 3.8457091
5.9974222 2.880096 3.8257091
5.9974222 2.9800961 3.7987089
5.9974222 3.080096 3.781709
5.9974222 3.1800959 3.7597089
5.9974222 3.2800961 3.734709
5.9974222 3.380096 3.7177091
5.9974222 3.4800961 3.692709
5.9974222 3.580096 3.6747091
5.9974222 3.6800959 3.6487091
5.9974222 3.880096 3.619709
5.9974222 3.9800961 3.5987091
5.9974222 4.0800958 3.5717089
5.9974222 4.380096 3.504709
5.9974222 4.5800958 3.4597089
5.9974222 4.880096 3.4037089
5.9974222 5.0800958 3.3557091
5.9974222 5.380096 3.310709
5.9974222 5.6800961 3.237709
5.9974222 5.880096 3.1947091
5.9974222 6.6800961 3.0327089
5.9974222 6.880096 2.9677091
5.9974222 7.2800961 2.908709
5.9974222 7.4800959 2.873709
5.9974222 7.7800961 2.8217089
5.9974222 7.9800959 2.7737091
5.9974222 8.3800964 2.7077091
5.9974222 8.5800962 2.672709
5.9974222 8.7800961 2.629709
5.9974222 9.0800962 2.5747089
5.9974222 9.3800964 2.5137091
5.9974222 9.6800957 2.465709
5.9974222 9.8800964 2.419709
5.9974222 10.280096 2.369709
5.9974222 10.780096 2.2967091
5.9974222 11.080096 2.2467091
5.9974222 11.280096 2.2107091
5.9974222 11.780096 2.133709
5.9974222 12.380096 2.0567091
5.9974222 13.980096 1.887709
5.9974222 15.080096 1.854709
5.9974222 16.280096 1.840709
5.9974222 16.680096 1.827709
5.9974222 17.080095 1.833709
5.9974222 17.380096 1.837709
5.9974222 17.580095 1.845709
5.9974222 17.980097 1.795709
5.9974222 18.280096 1.690709
5.8974218 -27.319904 -3.883291
5.8974218 -27.219904 -3.7572911
5.8974218 -27.119904 -3.5322909
5.8974218 -27.019903 -3.452291
5.8974218 -26.919905 -3.370291
5.8974218 -26.819904 -3.2722909
5.8974218 -26.219904 -2.906291
5.8974218 -25.919905 -2.8712909
5.8974218 -25.619904 -2.8452909
5.8974218 -25.119904 -2.7442911
5.8974218 -24.819904 -2.6852911
5.8974218 -24.219904 -2.581291
5.8974218 -23.819904 -2.4932909
5.8974218 -23.319904 -2.3482909
5.8974218 -23.119904 -2.3152909
5.8974218 -21.819904 -1.866291
5.8974218 -21.619904 -1.7822911
5.8974218 -21.319904 -1.661291
5.8974218 -21.019903 -1.538291
5.8974218 -19.919905 -1.062291
5.8974218 -19.719904 -0.98029101
5.8974218 -19.419905 -0.85529101
5.8974218 -18.119904 -0.34629101
5.8974218 -16.319904 0.435709
5.8974218 -15.819904 0.65970898
5.8974218 -13.919904 1.558709
5.8974218 -13.019904 1.976709
5.8974218 -12.719904 2.1207089
5.8974218 -12.519904 2.2037089
5.8974218 -12.319904 2.320709
5.8974218 -11.919904 2.508709
5.8974218 -11.719904 2.5847089
5.8974218 -11.519904 2.6947091
5.8974218 -11.119904 2.8547089
5.8974218 -10.919904 2.948709
5.8974218 -10.619904 3.070709
5.8974218 -10.319904 3.1897089
5.8974218 -9.9199038 3.3417089
5.8974218 -9.7199039 3.425709
5.8974218 -9.5199041 3.4927089
5.8974218 -9.2199039 3.580709
5.8974218 -9.0199041 3.656709
5.8974218 -8.8199043 3.7097089
5.8974218 -8.6199036 3.7687089
5.8974218 -8.4199038 3.837709
5.8974218 -8.3199043 3.8677089
5.8974218 -8.1199036 3.9167089
5.8974218 -8.0199041 3.9567089
5.8974218 -7.9199042 3.994709
5.8974218 -7.8199039 4.0007091
5.8974218 -7.7199039 4.033709
5.8974218 -7.619904 4.0567088
5.8974218 -7.5199041 4.0757089
5.8974218 -7.4199042 4.1017089
5.8974218 -7.3199039 4.133709
5.8974218 -7.2199039 4.1617088
5.8974218 -7.119904 4.178709
5.8974218 -7.0199041 4.185709
5.8974218 -6.9199042 4.205709
5.8974218 -6.8199039 4.2347088
5.8974218 -6.7199039 4.2567091
5.8974218 -6.619904 4.2797089
5.8974218 -6.5199041 4.2927089
5.8974218 -6.4199042 4.3057089
5.8974218 -6.3199039 4.3337088
5.8974218 -6.2199039 4.3447089
5.8974218 -6.119904 4.3667092
5.8974218 -6.0199041 4.383709
5.8974218 -5.9199042 4.4037089
5.8974218 -5.8199039 4.4037089
5.8974218 -5.7199039 4.4237089
5.8974218 -5.619904 4.4187088
5.8974218 -5.5199041 4.4507089
5.8974218 -5.4199042 4.4697089
5.8974218 -5.3199039 4.4777088
5.8974218 -5.2199039 4.4997091
5.8974218 -5.119904 4.501709
5.8974218 -5.0199041 4.5047088
5.8974218 -4.9199042 4.5167089
5.8974218 -4.8199039 4.533709
5.8974218 -4.7199039 4.534709
5.8974218 -4.619904 4.5557089
5.8974218 -4.5199041 4.5447092
5.8974218 -4.4199042 4.5507088
5.8974218 -4.3199039 4.5637088
5.8974218 -4.2199039 4.566709
5.8974218 -4.119904 4.5637088
5.8974218 -4.0199041 4.580709
5.8974218 -3.919904 4.5917091
5.8974218 -3.8199041 4.5887089
5.8974218 -3.7199039 4.5837088
5.8974218 -3.619904 4.5917091
5.8974218 -3.5199039 4.586709
5.8974218 -3.419904 4.5887089
5.8974218 -3.3199041 4.5827088
5.8974218 -3.2199039 4.5957088
5.8974218 -3.119904 4.5987091
5.8974218 -3.0199039 4.5987091
5.8974218 -2.919904 4.5957088
5.8974218 -2.8199041 4.5897088
5.8974218 -2.7199039 4.5917091
5.8974218 -2.619904 4.593709
5.8974218 -2.5199039 4.587709
5.8974218 -2.419904 4.5827088
5.8974218 -2.3199041 4.5707092
5.8974218 -2.2199039 4.567709
5.8974218 -2.119904 4.5777092
5.8974218 -2.0199039 4.5587091
5.8974218 -1.919904 4.5497088
5.8974218 -1.819904 4.5557089
5.8974218 -1.7199039 4.547709
5.8974218 -1.619904 4.5327091
5.8974218 -1.519904 4.521709
5.8974218 -1.419904 4.5227089
5.8974218 -1.319904 4.5097089
5.8974218 -1.2199039 4.4937091
5.8974218 -1.119904 4.5037088
5.8974218 -1.019904 4.487709
5.8974218 -0.91990399 4.4737091
5.8974218 -0.81990403 4.4697089
5.8974218 -0.71990401 4.4497089
5.8974218 -0.61990398 4.4347091
5.8974218 -0.51990402 4.4277091
5.8974218 -0.41990399 4.4177089
5.8974218 -0.319904 4.4077091
5.8974218 -0.21990401 4.3927088
5.8974218 -0.119904 4.376709
5.8974218 -0.019904001 4.3727088
5.8974218 0.080095999 4.3457088
5.8974218 0.180096 4.3277092
5.8974218 0.28009599 4.3067088
5.8974218 0.38009599 4.2987089
5.8974218 0.48009601 4.2877092
5.8974218 0.58009601 4.2597089
5.8974218 0.68009597 4.2457089
5.8974218 0.78009599 4.2297091
5.8974218 0.88009602 4.2107091
5.8974218 0.98009598 4.2027092
5.8974218 1.080096 4.1677089
5.8974218 1.180096 4.1567092
5.8974218 1.2800961 4.145709
5.8974218 1.380096 4.1187091
5.8974218 1.480096 4.1077089
5.8974218 1.580096 4.0917091
5.8974218 1.680096 4.0717092
5.8974218 1.7800961 4.0447092
5.8974218 1.880096 4.0297089
5.8974218 1.980096 4.0167089
5.8974218 2.080096 3.984709
5.8974218 2.1800959 3.9797089
5.8974218 2.2800961 3.9477091
5.8974218 2.380096 3.9237089
5.8974218 2.4800961 3.892709
5.8974218 2.580096 3.8807089
5.8974218 2.6800959 3.8447089
5.8974218 2.7800961 3.840709
5.8974218 2.880096 3.804709
5.8974218 3.080096 3.761709
5.8974218 3.4800961 3.6767089
5.8974218 4.2800961 3.5187089
5.8974218 4.7800961 3.4147091
5.8974218 4.9800959 3.372709
5.8974218 5.1800961 3.3447089
5.8974218 5.5800958 3.2537091
5.8974218 6.0800958 3.1507089
5.8974218 6.2800961 3.126709
5.8974218 6.4800959 3.0717089
5.8974218 6.7800961 3.027709
5.8974218 7.0800958 2.9507091
5.8974218 7.380096 2.882709
5.8974218 7.6800961 2.8327091
5.8974218 7.880096 2.7997091
5.8974218 8.1800957 2.7407091
5.8974218 8.4800959 2.6897089
5.8974218 8.6800957 2.6577089
5.8974218 8.9800959 2.573709
5.8974218 9.1800957 2.547709
5.8974218 10.080096 2.4017091
5.8974218 10.480096 2.349709
5.8974218 11.580096 2.1777091
5.8974218 11.980096 2.135709
5.8974218 12.680096 2.027709
5.8974218 12.880096 2.0267091
5.8974218 13.480096 1.956709
5.8974218 13.780096 1.929709
5.8974218 14.180096 1.884709
5.8974218 14.680096 1.861709
5.8974218 15.280096 1.851709
5.8974218 15.880096 1.8427089
5.8974218 19.080095 1.682709
5.8974218 19.180096 1.209709
5.7974219 -27.319904 -3.784291
5.7974219 -27.219904 -3.6282909
5.7974219 -27.119904 -3.512291
5.7974219 -26.819904 -3.281291
5.7974219 -26.719904 -3.173291
5.7974219 -26.619904 -3.114291
5.7974219 -26.519903 -3.0432911
5.7974219 -26.419905 -2.962291
5.7974219 -26.319904 -2.910291
5.7974219 -26.019903 -2.876291
5.7974219 -25.719904 -2.8382909
5.7974219 -25.419905 -2.8182909
5.7974219 -25.219904 -2.7692909
5.7974219 -24.919905 -2.7232909
5.7974219 -24.619904 -2.659291
5.7974219 -24.419905 -2.6222911
5.7974219 -24.119904 -2.557291
5.7974219 -23.719904 -2.4582911
5.7974219 -23.519903 -2.4172909
5.7974219 -22.119904 -1.9582911
5.7974219 -20.819904 -1.439291
5.7974219 -20.619904 -1.350291
5.7974219 -20.419905 -1.269291
5.7974219 -18.819904 -0.61129099
5.7974219 -12.119904 2.408709
5.7974219 -11.319904 2.7757089
5.7974219 -10.719904 3.0327089
5.7974219 -10.519904 3.109709
5.7974219 -10.119904 3.2667091
5.7974219 -9.6199036 3.4437089
5.7974219 -9.4199038 3.5297091
5.7974219 -9.1199036 3.616709
5.7974219 -8.9199038 3.6847091
5.7974219 -8.7199039 3.7507091
5.7974219 -8.5199041 3.7957089
5.7974219 -8.2199039 3.883709
5.7974219 -7.9199042 3.9597089
5.7974219 -7.8199039 3.9867091
5.7974219 -7.7199039 4.0127091
5.7974219 -7.619904 4.0457091
5.7974219 -7.5199041 4.053709
5.7974219 -7.4199042 4.0917091
5.7974219 -7.3199039 4.1117091
5.7974219 -7.2199039 4.1367092
5.7974219 -7.119904 4.158709
5.7974219 -7.0199041 4.1767092
5.7974219 -6.9199042 4.2017088
5.7974219 -6.8199039 4.2097092
5.7974219 -6.7199039 4.2337089
5.7974219 -6.619904 4.2547088
5.7974219 -6.5199041 4.2747092
5.7974219 -6.4199042 4.2897091
5.7974219 -6.3199039 4.2897091
5.7974219 -6.2199039 4.3157091
5.7974219 -6.119904 4.337709
5.7974219 -6.0199041 4.343709
5.7974219 -5.9199042 4.3677092
5.7974219 -5.8199039 4.3847089
5.7974219 -5.7199039 4.4047089
5.7974219 -5.619904 4.4177089
5.7974219 -5.5199041 4.4257088
5.7974219 -5.4199042 4.4347091
5.7974219 -5.3199039 4.4727092
5.7974219 -5.2199039 4.481709
5.7974219 -5.119904 4.4807091
5.7974219 -5.0199041 4.5037088
5.7974219 -4.9199042 4.4987092
5.7974219 -4.8199039 4.521709
5.7974219 -4.7199039 4.5287089
5.7974219 -4.619904 4.5427089
5.7974219 -4.5199041 4.5457091
5.7974219 -4.4199042 4.5567088
5.7974219 -4.3199039 4.5587091
5.7974219 -4.2199039 4.5777092
5.7974219 -4.119904 4.5757089
5.7974219 -4.0199041 4.5697088
5.7974219 -3.919904 4.566709
5.7974219 -3.8199041 4.567709
5.7974219 -3.7199039 4.5787091
5.7974219 -3.619904 4.586709
5.7974219 -3.5199039 4.5957088
5.7974219 -3.419904 4.5927091
5.7974219 -3.3199041 4.5897088
5.7974219 -3.2199039 4.5987091
5.7974219 -3.119904 4.5977092
5.7974219 -3.0199039 4.600709
5.7974219 -2.919904 4.600709
5.7974219 -2.8199041 4.5947089
5.7974219 -2.7199039 4.5947089
5.7974219 -2.619904 4.5957088
5.7974219 -2.5199039 4.599709
5.7974219 -2.419904 4.586709
5.7974219 -2.3199041 4.5837088
5.7974219 -2.2199039 4.586709
5.7974219 -2.119904 4.5637088
5.7974219 -2.0199039 4.5647092
5.7974219 -1.919904 4.554709
5.7974219 -1.819904 4.5507088
5.7974219 -1.7199039 4.5437088
5.7974219 -1.619904 4.5397091
5.7974219 -1.519904 4.5257092
5.7974219 -1.419904 4.5227089
5.7974219 -1.319904 4.5117092
5.7974219 -1.2199039 4.4957089
5.7974219 -1.119904 4.487709
5.7974219 -1.019904 4.4767089
5.7974219 -0.91990399 4.4767089
5.7974219 -0.81990403 4.4607091
5.7974219 -0.71990401 4.4447088
5.7974219 -0.61990398 4.4367089
5.7974219 -0.51990402 4.409709
5.7974219 -0.41990399 4.4057088
5.7974219 -0.319904 4.4017091
5.7974219 -0.21990401 4.3777089
5.7974219 -0.119904 4.3597088
5.7974219 -0.019904001 4.350709
5.7974219 0.080095999 4.3247089
5.7974219 0.180096 4.3267088
5.7974219 0.28009599 4.3007088
5.7974219 0.38009599 4.283709
5.7974219 0.48009601 4.2627091
5.7974219 0.58009601 4.2657089
5.7974219 0.68009597 4.2357092
5.7974219 0.78009599 4.2097092
5.7974219 0.88009602 4.1997089
5.7974219 0.98009598 4.1837091
5.7974219 1.080096 4.1697092
5.7974219 1.180096 4.1517091
5.7974219 1.2800961 4.1227088
5.7974219 1.380096 4.113709
5.7974219 1.480096 4.0957088
5.7974219 1.580096 4.0717092
5.7974219 1.680096 4.0577092
5.7974219 1.7800961 4.0367088
5.7974219 1.880096 4.0167089
5.7974219 1.980096 3.9967091
5.7974219 2.080096 3.975709
5.7974219 2.1800959 3.9597089
5.7974219 2.2800961 3.938709
5.7974219 2.380096 3.9177091
5.7974219 2.4800961 3.895709
5.7974219 2.580096 3.873709
5.7974219 2.6800959 3.8477089
5.7974219 2.7800961 3.830709
5.7974219 2.880096 3.8187089
5.7974219 2.9800961 3.7957089
5.7974219 3.080096 3.7757089
5.7974219 3.2800961 3.741709
5.7974219 3.380096 3.7137091
5.7974219 3.580096 3.6807089
5.7974219 3.6800959 3.6487091
5.7974219 3.7800961 3.629709
5.7974219 3.880096 3.603709
5.7974219 4.0800958 3.5757091
5.7974219 4.1800961 3.5497091
5.7974219 4.4800959 3.497709
5.7974219 4.6800961 3.4437089
5.7974219 4.880096 3.406709
5.7974219 5.0800958 3.359709
5.7974219 5.2800961 3.316709
5.7974219 5.4800959 3.267709
5.7974219 5.7800961 3.2107091
5.7974219 5.9800959 3.188709
5.7974219 6.1800961 3.1217091
5.7974219 6.380096 3.087709
5.7974219 6.5800958 3.0467091
5.7974219 6.9800959 2.968709
5.7974219 7.2800961 2.902709
5.7974219 7.5800958 2.8477089
5.7974219 7.7800961 2.8027091
5.7974219 7.9800959 2.777709
5.7974219 8.2800961 2.7227089
5.7974219 8.5800962 2.669709
5.7974219 8.8800964 2.622709
5.7974219 9.0800962 2.5747089
5.7974219 9.3800964 2.5127089
5.7974219 9.5800962 2.481709
5.7974219 9.7800961 2.4477091
5.7974219 10.280096 2.379709
5.7974219 10.680096 2.3147089
5.7974219 10.880096 2.2827089
5.7974219 11.080096 2.260709
5.7974219 11.380096 2.2207091
5.7974219 11.780096 2.1647091
5.7974219 12.180096 2.0917089
5.7974219 12.380096 2.0567091
5.7974219 13.080096 1.984709
5.7974219 13.280096 1.964709
5.7974219 14.380096 1.872709
5.7974219 14.980096 1.849709
5.7974219 15.680096 1.8707089
5.7974219 16.380096 1.835709
5.7974219 16.980097 1.834709
5.7974219 17.280096 1.823709
5.7974219 17.980097 1.7917089
5.7974219 18.180096 1.741709
5.7974219 18.380096 1.650709
5.697422 -27.319904 -3.6872909
5.697422 -27.219904 -3.5982909
5.697422 -27.019903 -3.426291
5.697422 -26.919905 -3.3652911
5.697422 -26.819904 -3.2492909
5.697422 -26.519903 -3.0222909
5.697422 -26.219904 -2.876291
5.697422 -25.919905 -2.830291
5.697422 -25.619904 -2.8162911
5.697422 -25.319904 -2.794291
5.697422 -25.019903 -2.725291
5.697422 -24.719904 -2.6742909
5.697422 -24.319904 -2.5652909
5.697422 -24.019903 -2.5292909
5.697422 -23.819904 -2.4762909
5.697422 -23.619904 -2.446291
5.697422 -23.419905 -2.3712909
5.697422 -22.919905 -2.251291
5.697422 -22.719904 -2.169291
5.697422 -22.419905 -2.0592909
5.697422 -21.819904 -1.842291
5.697422 -21.519903 -1.712291
5.697422 -21.219904 -1.605291
5.697422 -19.519903 -0.88029099
5.697422 -19.219904 -0.75529099
5.697422 -14.819904 1.157709
5.697422 -14.519904 1.295709
5.697422 -14.119904 1.479709
5.697422 -13.419904 1.818709
5.697422 -13.019904 1.989709
5.697422 -12.819904 2.0847089
5.697422 -12.619904 2.1767089
5.697422 -12.419904 2.274709
5.697422 -11.819904 2.5487089
5.697422 -11.619904 2.6347089
5.697422 -11.419904 2.7227089
5.697422 -11.219904 2.7967091
5.697422 -11.019904 2.8807089
5.697422 -10.819904 2.9637091
5.697422 -10.619904 3.067709
5.697422 -10.419904 3.139709
5.697422 -10.219904 3.2207091
5.697422 -10.019904 3.304709
5.697422 -9.8199043 3.376709
5.697422 -9.3199043 3.5587089
5.697422 -9.0199041 3.636709
5.697422 -8.8199043 3.6977091
5.697422 -8.6199036 3.764709
5.697422 -8.3199043 3.850709
5.697422 -8.0199041 3.945709
5.697422 -7.9199042 3.978709
5.697422 -7.7199039 4.0107088
5.697422 -7.619904 4.0387092
5.697422 -7.5199041 4.073709
5.697422 -7.4199042 4.093709
5.697422 -7.3199039 4.099709
5.697422 -7.2199039 4.1387091
5.697422 -7.119904 4.1557088
5.697422 -7.0199041 4.178709
5.697422 -6.9199042 4.1967092
5.697422 -6.8199039 4.2177091
5.697422 -6.7199039 4.224709
5.697422 -6.619904 4.2397089
5.697422 -6.5199041 4.2607088
5.697422 -6.4199042 4.2737088
5.697422 -6.3199039 4.3007088
5.697422 -6.2199039 4.3267088
5.697422 -6.119904 4.350709
5.697422 -6.0199041 4.356709
5.697422 -5.9199042 4.3737092
5.697422 -5.8199039 4.3757091
5.697422 -5.7199039 4.4037089
5.697422 -5.619904 4.4257088
5.697422 -5.5199041 4.4437089
5.697422 -5.4199042 4.4537091
5.697422 -5.3199039 4.4717088
5.697422 -5.2199039 4.4777088
5.697422 -5.119904 4.4867091
5.697422 -5.0199041 4.4957089
5.697422 -4.9199042 4.4997091
5.697422 -4.8199039 4.5007091
5.697422 -4.7199039 4.5057092
5.697422 -4.619904 4.5287089
5.697422 -4.5199041 4.5367088
5.697422 -4.4199042 4.5367088
5.697422 -4.3199039 4.534709
5.697422 -4.2199039 4.5527091
5.697422 -4.119904 4.5527091
5.697422 -4.0199041 4.553709
5.697422 -3.919904 4.5567088
5.697422 -3.8199041 4.5647092
5.697422 -3.7199039 4.5767088
5.697422 -3.619904 4.5727091
5.697422 -3.5199039 4.5767088
5.697422 -3.419904 4.593709
5.697422 -3.3199041 4.587709
5.697422 -3.2199039 4.5977092
5.697422 -3.119904 4.586709
5.697422 -3.0199039 4.5887089
5.697422 -2.919904 4.587709
5.697422 -2.8199041 4.5887089
5.697422 -2.7199039 4.5837088
5.697422 -2.619904 4.5707092
5.697422 -2.5199039 4.5637088
5.697422 -2.419904 4.580709
5.697422 -2.3199041 4.5757089
5.697422 -2.2199039 4.5597091
5.697422 -2.119904 4.5567088
5.697422 -2.0199039 4.5307088
5.697422 -1.919904 4.5367088
5.697422 -1.819904 4.5327091
5.697422 -1.7199039 4.520709
5.697422 -1.619904 4.5227089
5.697422 -1.519904 4.4977088
5.697422 -1.419904 4.4867091
5.697422 -1.319904 4.488709
5.697422 -1.2199039 4.488709
5.697422 -1.119904 4.4667091
5.697422 -1.019904 4.4657092
5.697422 -0.91990399 4.4547091
5.697422 -0.81990403 4.4447088
5.697422 -0.71990401 4.4317088
5.697422 -0.61990398 4.4217091
5.697422 -0.51990402 4.4007092
5.697422 -0.41990399 4.3987088
5.697422 -0.319904 4.3817091
5.697422 -0.21990401 4.3617091
5.697422 -0.119904 4.3427091
5.697422 -0.019904001 4.3487091
5.697422 0.080095999 4.3217092
5.697422 0.180096 4.3057089
5.697422 0.28009599 4.2897091
5.697422 0.38009599 4.2737088
5.697422 0.48009601 4.2507091
5.697422 0.58009601 4.2437091
5.697422 0.68009597 4.2237091
5.697422 0.78009599 4.1997089
5.697422 0.88009602 4.1907091
5.697422 0.98009598 4.178709
5.697422 1.080096 4.146709
5.697422 1.180096 4.1387091
5.697422 1.2800961 4.112709
5.697422 1.380096 4.1077089
5.697422 1.480096 4.0837088
5.697422 1.580096 4.0687089
5.697422 1.680096 4.0397091
5.697422 1.7800961 4.0247092
5.697422 1.880096 4.0177088
5.697422 1.980096 3.9957089
5.697422 2.080096 3.964709
5.697422 2.1800959 3.958709
5.697422 2.2800961 3.942709
5.697422 2.380096 3.9207089
5.697422 2.4800961 3.886709
5.697422 2.580096 3.8687091
5.697422 2.6800959 3.8527091
5.697422 2.7800961 3.837709
5.697422 2.880096 3.8187089
5.697422 2.9800961 3.790709
5.697422 3.1800959 3.7527089
5.697422 3.4800961 3.6737089
5.697422 4.380096 3.4927089
5.697422 4.5800958 3.452709
5.697422 4.7800961 3.4047091
5.697422 4.9800959 3.3707089
5.697422 5.1800961 3.3227091
5.697422 5.380096 3.293709
5.697422 5.6800961 3.2097089
5.697422 6.0800958 3.1447091
5.697422 6.2800961 3.1017089
5.697422 6.4800959 3.0557089
5.697422 6.6800961 3.0187089
5.697422 6.880096 2.9697089
5.697422 7.1800961 2.9217091
5.697422 7.4800959 2.8787091
5.697422 7.6800961 2.823709
5.697422 7.880096 2.7887089
5.697422 8.0800962 2.7567091
5.697422 8.3800964 2.7097089
5.697422 8.7800961 2.639709
5.697422 9.2800961 2.534709
5.697422 9.9800959 2.4267089
5.697422 10.480096 2.3427091
5.697422 11.580096 2.1867089
5.697422 12.580096 2.0587089
5.697422 12.780096 2.037709
5.697422 13.580096 1.934709
5.697422 13.780096 1.9037091
5.697422 13.980096 1.911709
5.697422 14.180096 1.877709
5.697422 14.580096 1.862709
5.697422 15.180096 1.864709
5.697422 15.480096 1.849709
5.697422 16.080095 1.851709
5.697422 16.680096 1.822709
5.697422 17.780096 1.809709
5.697422 18.680096 1.726709
5.697422 19.280096 1.735709
5.5974221 -27.319904 -3.7332909
5.5974221 -27.219904 -3.6752911
5.5974221 -27.119904 -3.5752909
5.5974221 -26.719904 -3.192291
5.5974221 -26.419905 -2.9632909
5.5974221 -26.319904 -2.9112909
5.5974221 -26.019903 -2.843291
5.5974221 -25.819904 -2.8382909
5.5974221 -25.519903 -2.811291
5.5974221 -25.119904 -2.735291
5.5974221 -24.819904 -2.6812911
5.5974221 -24.519903 -2.6252911
5.5974221 -24.219904 -2.5552909
5.5974221 -23.919905 -2.4762909
5.5974221 -23.219904 -2.3192911
5.5974221 -20.919905 -1.469291
5.5974221 -20.119904 -1.116291
5.5974221 -17.719904 -0.152291
5.5974221 -15.219904 0.97670901
5.5974221 -14.319904 1.397709
5.5974221 -13.819904 1.645709
5.5974221 -13.219904 1.900709
5.5974221 -12.219904 2.3757091
5.5974221 -12.019904 2.4477091
5.5974221 -11.719904 2.5657091
5.5974221 -11.119904 2.8387091
5.5974221 -10.919904 2.912709
5.5974221 -10.319904 3.1617091
5.5974221 -10.119904 3.2407091
5.5974221 -9.9199038 3.323709
5.5974221 -9.7199039 3.392709
5.5974221 -9.5199041 3.4637091
5.5974221 -9.1199036 3.6017089
5.5974221 -8.9199038 3.6747091
5.5974221 -8.7199039 3.7237091
5.5974221 -8.4199038 3.8117089
5.5974221 -8.2199039 3.872709
5.5974221 -8.1199036 3.905709
5.5974221 -7.9199042 3.958709
5.5974221 -7.8199039 3.968709
5.5974221 -7.7199039 3.991709
5.5974221 -7.5199041 4.0507088
5.5974221 -7.4199042 4.0697088
5.5974221 -7.3199039 4.099709
5.5974221 -7.2199039 4.126709
5.5974221 -7.119904 4.146709
5.5974221 -7.0199041 4.152709
5.5974221 -6.9199042 4.1677089
5.5974221 -6.8199039 4.205709
5.5974221 -6.7199039 4.2297091
5.5974221 -6.619904 4.2397089
5.5974221 -6.5199041 4.2597089
5.5974221 -6.4199042 4.2667089
5.5974221 -6.3199039 4.2987089
5.5974221 -6.2199039 4.3097091
5.5974221 -6.119904 4.3277092
5.5974221 -6.0199041 4.3547091
5.5974221 -5.9199042 4.350709
5.5974221 -5.8199039 4.3797088
5.5974221 -5.7199039 4.4007092
5.5974221 -5.619904 4.3997092
5.5974221 -5.5199041 4.4237089
5.5974221 -5.4199042 4.4377089
5.5974221 -5.3199039 4.4457092
5.5974221 -5.2199039 4.455709
5.5974221 -5.119904 4.4737091
5.5974221 -5.0199041 4.481709
5.5974221 -4.9199042 4.4837089
5.5974221 -4.8199039 4.5007091
5.5974221 -4.7199039 4.5037088
5.5974221 -4.619904 4.5167089
5.5974221 -4.5199041 4.514709
5.5974221 -4.4199042 4.5197091
5.5974221 -4.3199039 4.5307088
5.5974221 -4.2199039 4.5527091
5.5974221 -4.119904 4.554709
5.5974221 -4.0199041 4.554709
5.5974221 -3.919904 4.566709
5.5974221 -3.8199041 4.5647092
5.5974221 -3.7199039 4.5567088
5.5974221 -3.619904 4.5767088
5.5974221 -3.5199039 4.5817089
5.5974221 -3.419904 4.5887089
5.5974221 -3.3199041 4.586709
5.5974221 -3.2199039 4.5817089
5.5974221 -3.119904 4.5747089
5.5974221 -3.0199039 4.5697088
5.5974221 -2.919904 4.5727091
5.5974221 -2.8199041 4.5827088
5.5974221 -2.7199039 4.5767088
5.5974221 -2.619904 4.5727091
5.5974221 -2.5199039 4.586709
5.5974221 -2.419904 4.5637088
5.5974221 -2.3199041 4.5697088
5.5974221 -2.2199039 4.5587091
5.5974221 -2.119904 4.5377092
5.5974221 -2.0199039 4.5417089
5.5974221 -1.919904 4.5307088
5.5974221 -1.819904 4.5267091
5.5974221 -1.7199039 4.5157089
5.5974221 -1.619904 4.5127091
5.5974221 -1.519904 4.5117092
5.5974221 -1.419904 4.5007091
5.5974221 -1.319904 4.4897089
5.5974221 -1.2199039 4.4807091
5.5974221 -1.119904 4.4777088
5.5974221 -1.019904 4.442709
5.5974221 -0.91990399 4.4497089
5.5974221 -0.81990403 4.4447088
5.5974221 -0.71990401 4.4207091
5.5974221 -0.61990398 4.422709
5.5974221 -0.51990402 4.4067092
5.5974221 -0.41990399 4.395709
5.5974221 -0.319904 4.3817091
5.5974221 -0.21990401 4.3657088
5.5974221 -0.119904 4.3677092
5.5974221 -0.019904001 4.3347092
5.5974221 0.080095999 4.3227091
5.5974221 0.180096 4.3117089
5.5974221 0.28009599 4.2857089
5.5974221 0.38009599 4.271709
5.5974221 0.48009601 4.2547088
5.5974221 0.58009601 4.2497091
5.5974221 0.68009597 4.218709
5.5974221 0.78009599 4.1997089
5.5974221 0.88009602 4.1837091
5.5974221 0.98009598 4.1637092
5.5974221 1.080096 4.1547089
5.5974221 1.180096 4.1357088
5.5974221 1.2800961 4.1297088
5.5974221 1.380096 4.0977092
5.5974221 1.480096 4.0897088
5.5974221 1.580096 4.073709
5.5974221 1.680096 4.0457091
5.5974221 1.7800961 4.0247092
5.5974221 1.880096 4.007709
5.5974221 1.980096 3.9797089
5.5974221 2.080096 3.9727089
5.5974221 2.1800959 3.951709
5.5974221 2.2800961 3.9307089
5.5974221 2.380096 3.902709
5.5974221 2.4800961 3.879709
5.5974221 2.580096 3.8617091
5.5974221 2.6800959 3.839709
5.5974221 2.7800961 3.820709
5.5974221 2.880096 3.8017089
5.5974221 2.9800961 3.7767091
5.5974221 3.080096 3.767709
5.5974221 3.1800959 3.7397089
5.5974221 3.2800961 3.7197089
5.5974221 3.4800961 3.6907091
5.5974221 3.580096 3.6707089
5.5974221 3.6800959 3.652709
5.5974221 3.9800961 3.590709
5.5974221 4.2800961 3.520709
5.5974221 4.4800959 3.4807091
5.5974221 4.6800961 3.4377091
5.5974221 4.880096 3.3947091
5.5974221 5.0800958 3.3447089
5.5974221 5.2800961 3.3027091
5.5974221 5.4800959 3.2697091
5.5974221 5.880096 3.1837089
5.5974221 6.380096 3.0727091
5.5974221 6.5800958 3.040709
5.5974221 6.7800961 2.9997089
5.5974221 7.0800958 2.919709
5.5974221 7.2800961 2.9077089
5.5974221 8.2800961 2.711709
5.5974221 8.4800959 2.6837089
5.5974221 8.6800957 2.6447091
5.5974221 8.9800959 2.5987091
5.5974221 9.4800959 2.508709
5.5974221 9.6800957 2.484709
5.5974221 10.880096 2.294709
5.5974221 11.080096 2.260709
5.5974221 11.780096 2.1667089
5.5974221 11.980096 2.1377089
5.5974221 12.180096 2.0917089
5.5974221 14.880096 1.8577091
5.5974221 15.880096 1.846709
5.5974221 16.480097 1.832709
5.5974221 17.080095 1.823709
5.5974221 17.580095 1.8067091
5.5974221 17.980097 1.779709
5.4974222 -27.219904 -3.6682911
5.4974222 -27.119904 -3.591291
5.4974222 -27.019903 -3.508291
5.4974222 -26.919905 -3.429291
5.4974222 -26.819904 -3.3222909
5.4974222 -26.619904 -3.1292911
5.4974222 -26.519903 -3.0492909
5.4974222 -26.119904 -2.8682909
5.4974222 -25.919905 -2.8282909
5.4974222 -25.719904 -2.8132911
5.4974222 -25.419905 -2.775291
5.4974222 -25.219904 -2.7432909
5.4974222 -25.019903 -2.699291
5.4974222 -24.619904 -2.6252911
5.4974222 -24.419905 -2.591291
5.4974222 -24.019903 -2.501291
5.4974222 -23.719904 -2.446291
5.4974222 -23.519903 -2.4082911
5.4974222 -23.319904 -2.3492911
5.4974222 -23.019903 -2.2542911
5.4974222 -22.719904 -2.1482911
5.4974222 -22.419905 -2.0422909
5.4974222 -22.119904 -1.929291
5.4974222 -21.819904 -1.825291
5.4974222 -21.519903 -1.704291
5.4974222 -21.319904 -1.637291
5.4974222 -21.119904 -1.530291
5.4974222 -20.719904 -1.380291
5.4974222 -20.519903 -1.280291
5.4974222 -20.319904 -1.178291
5.4974222 -19.919905 -1.001291
5.4974222 -19.619904 -0.90029103
5.4974222 -18.919905 -0.61829102
5.4974222 -18.319904 -0.39129099
5.4974222 -17.119904 0.090709001
5.4974222 -12.819904 2.109709
5.4974222 -12.619904 2.182709
5.4974222 -11.619904 2.629709
5.4974222 -11.319904 2.758709
5.4974222 -11.019904 2.8807089
5.4974222 -10.719904 3.001709
5.4974222 -10.519904 3.0817089
5.4974222 -10.219904 3.2067089
5.4974222 -10.019904 3.270709
5.4974222 -9.3199043 3.5357089
5.4974222 -9.0199041 3.6377089
5.4974222 -8.8199043 3.6867089
5.4974222 -8.6199036 3.7657089
5.4974222 -8.3199043 3.8417089
5.4974222 -7.619904 4.0227089
5.4974222 -7.3199039 4.1017089
5.4974222 -7.2199039 4.1117091
5.4974222 -7.119904 4.133709
5.4974222 -7.0199041 4.1557088
5.4974222 -6.8199039 4.198709
5.4974222 -6.7199039 4.2167091
5.4974222 -6.619904 4.2437091
5.4974222 -6.5199041 4.2507091
5.4974222 -6.4199042 4.2687092
5.4974222 -6.3199039 4.2817092
5.4974222 -6.2199039 4.3067088
5.4974222 -6.119904 4.3217092
5.4974222 -6.0199041 4.3397088
5.4974222 -5.9199042 4.3617091
5.4974222 -5.8199039 4.3677092
5.4974222 -5.7199039 4.3877091
5.4974222 -5.619904 4.4147091
5.4974222 -5.5199041 4.4207091
5.4974222 -5.4199042 4.4337091
5.4974222 -5.3199039 4.4367089
5.4974222 -5.2199039 4.4397092
5.4974222 -5.119904 4.4597092
5.4974222 -5.0199041 4.4727092
5.4974222 -4.9199042 4.488709
5.4974222 -4.8199039 4.4867091
5.4974222 -4.7199039 4.4927092
5.4974222 -4.619904 4.5097089
5.4974222 -4.5199041 4.5197091
5.4974222 -4.4199042 4.5307088
5.4974222 -4.3199039 4.5327091
5.4974222 -4.2199039 4.5327091
5.4974222 -4.119904 4.533709
5.4974222 -4.0199041 4.5387092
5.4974222 -3.919904 4.5447092
5.4974222 -3.8199041 4.5437088
5.4974222 -3.7199039 4.5427089
5.4974222 -3.619904 4.5507088
5.4974222 -3.5199039 4.5657091
5.4974222 -3.419904 4.5617089
5.4974222 -3.3199041 4.5657091
5.4974222 -3.2199039 4.567709
5.4974222 -3.119904 4.5727091
5.4974222 -3.0199039 4.5757089
5.4974222 -2.919904 4.5637088
5.4974222 -2.8199041 4.5707092
5.4974222 -2.7199039 4.5647092
5.4974222 -2.619904 4.5587091
5.4974222 -2.5199039 4.554709
5.4974222 -2.419904 4.5527091
5.4974222 -2.3199041 4.5527091
5.4974222 -2.2199039 4.5507088
5.4974222 -2.119904 4.5387092
5.4974222 -2.0199039 4.5327091
5.4974222 -1.919904 4.5257092
5.4974222 -1.819904 4.5237088
5.4974222 -1.7199039 4.5067091
5.4974222 -1.619904 4.5047088
5.4974222 -1.519904 4.4987092
5.4974222 -1.419904 4.4927092
5.4974222 -1.319904 4.4807091
5.4974222 -1.2199039 4.4717088
5.4974222 -1.119904 4.4607091
5.4974222 -1.019904 4.4587088
5.4974222 -0.91990399 4.4567089
5.4974222 -0.81990403 4.4367089
5.4974222 -0.71990401 4.4187088
5.4974222 -0.61990398 4.409709
5.4974222 -0.51990402 4.4147091
5.4974222 -0.41990399 4.3907089
5.4974222 -0.319904 4.3867092
5.4974222 -0.21990401 4.3677092
5.4974222 -0.119904 4.3517089
5.4974222 -0.019904001 4.3427091
5.4974222 0.080095999 4.323709
5.4974222 0.180096 4.3127089
5.4974222 0.28009599 4.303709
5.4974222 0.38009599 4.2737088
5.4974222 0.48009601 4.2527089
5.4974222 0.58009601 4.244709
5.4974222 0.68009597 4.2297091
5.4974222 0.78009599 4.2157092
5.4974222 0.88009602 4.1967092
5.4974222 0.98009598 4.1767092
5.4974222 1.080096 4.146709
5.4974222 1.180096 4.1307092
5.4974222 1.2800961 4.1107092
5.4974222 1.380096 4.0967088
5.4974222 1.480096 4.0797091
5.4974222 1.580096 4.0447092
5.4974222 1.680096 4.0427089
5.4974222 1.7800961 4.0247092
5.4974222 1.880096 3.994709
5.4974222 1.980096 3.975709
5.4974222 2.080096 3.9707091
5.4974222 2.1800959 3.952709
5.4974222 2.2800961 3.919709
5.4974222 2.380096 3.8987091
5.4974222 2.4800961 3.886709
5.4974222 2.580096 3.8587091
5.4974222 2.6800959 3.8527091
5.4974222 2.7800961 3.8227091
