# .PCD v0.7 - Point Cloud Data file format
VERSION 0.7
FIELDS x y z
SIZE 4 4 4
TYPE F F F
COUNT 1 1 1
WIDTH 1543
HEIGHT 1
VIEWPOINT 0 0 0 1 0 0 0
POINTS 1543
DATA ascii
4.1284218 -2.978291 -10.397904
4.1284218 -2.9762909 -10.597904
4.1284218 -2.9612911 -10.797904
4.1284218 -2.9602909 -10.997904
4.1284218 -2.9602909 -11.197904
4.1284218 -2.9532909 -11.597904
4.1284218 -2.9502909 -12.497904
4.1284218 -2.966291 -12.997904
4.1284218 -2.9832909 -13.397904
4.1284218 -3.0002911 -13.597904
4.1284218 -3.0032909 -13.797904
4.1284218 -3.0172911 -13.997904
4.1284218 -3.0422909 -14.197904
4.1284218 -3.081291 -14.597904
4.1284218 -3.1482911 -15.397904
4.1284218 -3.1742909 -15.597904
4.1284218 -3.2032909 -15.897904
4.1284218 -3.235291 -16.197905
4.1284218 -3.252291 -16.397903
4.1284218 -3.2722909 -16.597904
4.1284218 -3.304291 -16.897903
4.1284218 -3.3322909 -17.197905
4.1284218 -3.3682909 -17.497904
4.1284218 -3.386291 -17.697905
4.1284218 -3.3912909 -17.797903
4.1284218 -3.3912909 -17.897903
4.1284218 -3.3922911 -17.997904
4.1284218 -3.419291 -18.097904
4.1284218 -3.4302909 -18.197905
4.1284218 -3.445291 -18.297903
4.1284218 -3.446291 -18.397903
4.1284218 -3.456291 -18.497904
4.1284218 -3.4642911 -18.597904
4.1284218 -3.4802909 -18.697905
4.1284218 -3.489291 -18.797903
4.1284218 -3.511291 -18.897903
4.1284218 -3.524291 -18.997904
4.1284218 -3.534291 -19.097904
4.1284218 -3.5562911 -19.197905
4.1284218 -3.5722909 -19.297903
4.1284218 -3.594291 -19.397903
4.1284218 -3.5952909 -19.497904
4.1284218 -3.603291 -19.597904
4.1284218 -3.6182909 -19.697905
4.1284218 -3.630291 -19.797903
4.1284218 -3.636291 -19.897903
4.1284218 -3.639291 -19.997904
4.1284218 -3.6472909 -20.097904
4.1284218 -3.6552911 -20.197905
4.1284218 -3.6582911 -20.297903
4.1284218 -3.689291 -20.397903
4.1284218 -3.673291 -20.497904
4.1284218 -3.6752911 -20.597904
4.1284218 -3.6782911 -20.697905
4.1284218 -3.6882911 -20.797903
4.1284218 -3.6902909 -20.897903
4.1284218 -3.686291 -20.997904
4.1284218 -3.7102909 -21.097904
4.1284218 -3.716291 -21.197905
4.1284218 -3.7212911 -21.297903
4.1284218 -3.7362909 -21.397903
4.1284218 -3.7572911 -21.497904
4.1284218 -3.7832911 -21.597904
4.1284218 -3.788291 -21.697905
4.1284218 -3.8002911 -21.797903
4.1284218 -3.814291 -21.897903
4.1284218 -3.830291 -21.997904
4.1284218 -3.843291 -22.097904
4.1284218 -3.850291 -22.197905
4.1284218 -3.8782909 -22.297903
4.1284218 -3.896291 -22.397903
4.1284218 -3.9182911 -22.497904
4.1284218 -3.9402909 -22.597904
4.1284218 -3.9632909 -22.697905
4.1284218 -3.998291 -22.797903
4.1284218 -4.012291 -22.897903
4.1284218 -4.0352912 -22.997904
4.1284218 -4.0562911 -23.097904
4.1284218 -4.0822911 -23.197905
4.1284218 -4.1092911 -23.297903
4.1284218 -4.1332908 -23.397903
4.1284218 -4.1532912 -23.497904
4.1284218 -4.1702909 -23.597904
4.1284218 -4.1812911 -23.697905
4.1284218 -4.1812911 -23.797903
4.1284218 -4.189291 -23.897903
4.1284218 -4.1942911 -23.997904
4.1284218 -4.195291 -24.097904
4.1284218 -4.2122908 -24.197905
4.1284218 -4.2392912 -24.297903
4.1284218 -4.2662911 -24.397903
4.1284218 -4.2862911 -24.497904
4.1284218 -4.3132911 -24.597904
4.1284218 -4.3352909 -24.697905
4.1284218 -4.3582911 -24.797903
4.1284218 -4.3942909 -24.897903
4.1284218 -4.4092908 -24.997904
4.1284218 -4.4222908 -25.097904
4.1284218 -4.4482908 -25.197905
4.1284218 -4.4492912 -25.297903
4.1284218 -4.4832911 -25.397903
4.1284218 -4.5152912 -25.497904
4.1284218 -4.5432911 -25.597904
4.1284218 -4.5652909 -25.697905
4.1284218 -4.5822911 -25.797903
4.1284218 -4.5962911 -25.897903
4.1284218 -4.6152911 -25.997904
4.1284218 -4.6312909 -26.097904
4.1284218 -4.6382909 -26.197905
4.1284218 -4.6532912 -26.297903
4.1284218 -4.6712909 -26.397903
4.1284218 -4.696291 -26.497904
4.1284218 -4.7132912 -26.597904
4.1284218 -4.7302909 -26.697905
4.1284218 -4.7462912 -26.797903
4.1284218 -4.762291 -26.897903
4.1284218 -4.7902908 -26.997904
4.1284218 -4.8132911 -27.097904
4.1284218 -4.8362908 -27.197905
4.1284218 -4.8442912 -27.297903
4.1284218 -4.8422909 -27.397903
4.1284218 -4.8362908 -27.497904
4.0284219 -0.455291 20.902096
4.0284219 -0.62629098 20.802095
4.0284219 -0.84129101 20.702097
4.0284219 -1.058291 20.602097
4.0284219 -1.275291 20.502096
4.0284219 -1.543291 20.402096
4.0284219 -1.811291 20.302095
4.0284219 -2.047291 20.202097
4.0284219 -2.2922909 20.102097
4.0284219 -2.5102911 20.002096
4.0284219 -2.6842909 19.902096
4.0284219 -2.8782909 19.802095
4.0284219 -3.0722909 19.702097
4.0284219 -3.2442911 19.602097
4.0284219 -3.4152911 19.502096
4.0284219 -3.581291 19.402096
4.0284219 -3.771291 19.302095
4.0284219 -3.9842911 19.202097
4.0284219 -4.0882912 19.002096
4.0284219 -4.0602908 18.702097
4.0284219 -4.051291 18.502096
4.0284219 -4.0352912 18.202097
4.0284219 -4.0272908 18.002096
4.0284219 -4.0042911 17.802095
4.0284219 -3.9932909 17.502096
4.0284219 -3.956291 17.202097
4.0284219 -3.926291 16.802095
4.0284219 -3.9042909 16.602097
4.0284219 -3.830291 16.002096
4.0284219 -3.8122909 15.802096
4.0284219 -3.794291 15.602096
4.0284219 -3.791291 15.402096
4.0284219 -3.775291 15.202096
4.0284219 -3.764291 15.002096
4.0284219 -3.758291 14.802096
4.0284219 -3.758291 14.602096
4.0284219 -3.7442911 14.402096
4.0284219 -3.7472911 14.202096
4.0284219 -3.7492909 13.802096
4.0284219 -3.751291 13.602096
4.0284219 -3.7342911 12.502096
4.0284219 -3.525291 11.302096
4.0284219 -3.4472909 10.502096
4.0284219 -3.452291 10.202096
4.0284219 -3.4932909 7.3020959
4.0284219 -3.7862909 5.0020962
4.0284219 -3.1802909 -3.8979039
4.0284219 -3.1712911 -5.8979039
4.0284219 -3.205291 -6.8979039
4.0284219 -3.225291 -7.3979039
4.0284219 -3.137291 -8.297904
4.0284219 -3.0832911 -8.6979036
4.0284219 -3.0532911 -9.1979036
4.0284219 -3.0362909 -9.5979042
4.0284219 -3.0102911 -9.9979038
4.0284219 -2.9642911 -11.997904
4.0284219 -2.965291 -12.197904
4.0284219 -2.966291 -12.397904
4.0284219 -2.969291 -12.697904
4.0284219 -2.9932909 -13.197904
4.0284219 -3.0042911 -13.497904
4.0284219 -3.0222909 -13.697904
4.0284219 -3.038291 -13.897904
4.0284219 -3.0592909 -14.097904
4.0284219 -3.077291 -14.397904
4.0284219 -3.103291 -14.697904
4.0284219 -3.1192911 -14.897904
4.0284219 -3.1312909 -15.097904
4.0284219 -3.1542909 -15.297904
4.0284219 -3.1802909 -15.497904
4.0284219 -3.199291 -15.697904
4.0284219 -3.216291 -15.997904
4.0284219 -3.2492909 -16.297903
4.0284219 -3.268291 -16.497904
4.0284219 -3.2962911 -16.797903
4.0284219 -3.330291 -17.097904
4.0284219 -3.364291 -17.397903
4.0284219 -3.3792911 -17.597904
4.0284219 -3.4152911 -17.897903
4.0284219 -3.4182911 -17.997904
4.0284219 -3.429291 -18.097904
4.0284219 -3.439291 -18.197905
4.0284219 -3.4502909 -18.297903
4.0284219 -3.4632909 -18.397903
4.0284219 -3.4732909 -18.497904
4.0284219 -3.4762909 -18.597904
4.0284219 -3.491291 -18.697905
4.0284219 -3.512291 -18.797903
4.0284219 -3.5232911 -18.897903
4.0284219 -3.5402911 -18.997904
4.0284219 -3.558291 -19.097904
4.0284219 -3.5762911 -19.197905
4.0284219 -3.591291 -19.297903
4.0284219 -3.6052909 -19.397903
4.0284219 -3.6182909 -19.497904
4.0284219 -3.630291 -19.597904
4.0284219 -3.630291 -19.697905
4.0284219 -3.639291 -19.797903
4.0284219 -3.6422911 -19.897903
4.0284219 -3.646291 -19.997904
4.0284219 -3.6522911 -20.097904
4.0284219 -3.653291 -20.197905
4.0284219 -3.659291 -20.297903
4.0284219 -3.6672909 -20.397903
4.0284219 -3.669291 -20.497904
4.0284219 -3.6752911 -20.597904
4.0284219 -3.6882911 -20.697905
4.0284219 -3.695291 -20.797903
4.0284219 -3.6912911 -20.897903
4.0284219 -3.695291 -20.997904
4.0284219 -3.7072909 -21.097904
4.0284219 -3.722291 -21.197905
4.0284219 -3.7342911 -21.297903
4.0284219 -3.739291 -21.397903
4.0284219 -3.7492909 -21.497904
4.0284219 -3.7602911 -21.597904
4.0284219 -3.7802911 -21.697905
4.0284219 -3.8002911 -21.797903
4.0284219 -3.8162911 -21.897903
4.0284219 -3.827291 -21.997904
4.0284219 -3.8382909 -22.097904
4.0284219 -3.857291 -22.197905
4.0284219 -3.880291 -22.297903
4.0284219 -3.9012909 -22.397903
4.0284219 -3.923291 -22.497904
4.0284219 -3.945291 -22.597904
4.0284219 -3.966291 -22.697905
4.0284219 -3.992291 -22.797903
4.0284219 -4.0212908 -22.897903
4.0284219 -4.0432911 -22.997904
4.0284219 -4.0622911 -23.097904
4.0284219 -4.0952911 -23.197905
4.0284219 -4.1142912 -23.297903
4.0284219 -4.1442909 -23.397903
4.0284219 -4.1582909 -23.497904
4.0284219 -4.176291 -23.597904
4.0284219 -4.1922908 -23.697905
4.0284219 -4.1922908 -23.797903
4.0284219 -4.1932912 -23.897903
4.0284219 -4.1972909 -23.997904
4.0284219 -4.209291 -24.097904
4.0284219 -4.2212911 -24.197905
4.0284219 -4.2362909 -24.297903
4.0284219 -4.2592912 -24.397903
4.0284219 -4.2822909 -24.497904
4.0284219 -4.2992911 -24.597904
4.0284219 -4.3252912 -24.697905
4.0284219 -4.3502908 -24.797903
4.0284219 -4.3832908 -24.897903
4.0284219 -4.4142909 -24.997904
4.0284219 -4.4352908 -25.097904
4.0284219 -4.4582911 -25.197905
4.0284219 -4.4692912 -25.297903
4.0284219 -4.4932909 -25.397903
4.0284219 -4.5192909 -25.497904
4.0284219 -4.5432911 -25.597904
4.0284219 -4.5652909 -25.697905
4.0284219 -4.5962911 -25.797903
4.0284219 -4.617291 -25.897903
4.0284219 -4.6312909 -25.997904
4.0284219 -4.6462908 -26.097904
4.0284219 -4.6572909 -26.197905
4.0284219 -4.6652908 -26.297903
4.0284219 -4.6922908 -26.397903
4.0284219 -4.7112908 -26.497904
4.0284219 -4.7172909 -26.597904
4.0284219 -4.7402911 -26.697905
4.0284219 -4.7542911 -26.797903
4.0284219 -4.7702909 -26.897903
4.0284219 -4.7982912 -26.997904
4.0284219 -4.8242912 -27.097904
4.0284219 -4.8462911 -27.197905
4.0284219 -4.8612909 -27.297903
4.0284219 -4.8702912 -27.397903
3.928422 -0.36429101 20.902096
3.928422 -0.53829098 20.802095
3.928422 -0.768291 20.702097
3.928422 -1.0092911 20.602097
3.928422 -1.266291 20.502096
3.928422 -1.468291 20.402096
3.928422 -1.720291 20.302095
3.928422 -1.966291 20.202097
3.928422 -2.2132909 20.102097
3.928422 -2.4302909 20.002096
3.928422 -2.673291 19.902096
3.928422 -2.8482909 19.802095
3.928422 -3.025291 19.702097
3.928422 -3.1912911 19.602097
3.928422 -3.337291 19.502096
3.928422 -3.5132909 19.402096
3.928422 -3.7502911 19.302095
3.928422 -3.945291 19.202097
3.928422 -4.051291 19.102097
3.928422 -4.077291 18.802095
3.928422 -4.0612912 18.602097
3.928422 -4.0422912 18.302095
3.928422 -4.0292912 18.102097
3.928422 -4.012291 17.902096
3.928422 -4.0002909 17.602097
3.928422 -3.955291 17.302095
3.928422 -3.9282911 17.102097
3.928422 -3.9082911 16.902096
3.928422 -3.8942909 16.702097
3.928422 -3.8552909 16.302095
3.928422 -3.8332911 16.102097
3.928422 -3.808291 15.902096
3.928422 -3.7772911 15.502096
3.928422 -3.764291 15.302096
3.928422 -3.7472911 15.102096
3.928422 -3.735291 14.902096
3.928422 -3.7302909 14.702096
3.928422 -3.7332909 14.502096
3.928422 -3.7272911 14.302096
3.928422 -3.739291 14.002096
3.928422 -3.7472911 13.402096
3.928422 -3.7462909 13.202096
3.928422 -3.7342911 13.002096
3.928422 -3.7172911 12.802096
3.928422 -3.686291 12.302096
3.928422 -3.6702909 12.102096
3.928422 -3.6092911 11.802096
3.928422 -3.5792911 11.602096
3.928422 -3.511291 11.102096
3.928422 -3.468291 10.902096
3.928422 -3.4482911 10.702096
3.928422 -3.4602909 9.702096
3.928422 -3.4402909 9.4020958
3.928422 -3.4372909 9.1020956
3.928422 -3.4312911 8.6020956
3.928422 -3.650291 7.0020962
3.928422 -3.9512911 6.702096
3.928422 -3.9012909 6.0020962
3.928422 -3.8462911 5.6020961
3.928422 -3.219291 -3.097904
3.928422 -3.179291 -4.4979038
3.928422 -3.1882911 -5.3979039
3.928422 -3.199291 -6.3979039
3.928422 -3.1932909 -7.6979041
3.928422 -3.159291 -8.0979042
3.928422 -3.058291 -8.8979044
3.928422 -3.0302911 -9.797904
3.928422 -2.9972911 -10.397904
3.928422 -2.9942911 -10.697904
3.928422 -2.978291 -10.897904
3.928422 -2.9772911 -11.297904
3.928422 -2.975291 -11.497904
3.928422 -2.9712911 -11.697904
3.928422 -2.966291 -12.297904
3.928422 -2.969291 -12.497904
3.928422 -2.9862909 -12.897904
3.928422 -2.9862909 -13.097904
3.928422 -3.0032909 -13.397904
3.928422 -3.0332911 -13.797904
3.928422 -3.048291 -13.997904
3.928422 -3.0592909 -14.197904
3.928422 -3.1052909 -14.597904
3.928422 -3.120291 -14.797904
3.928422 -3.1472909 -14.997904
3.928422 -3.159291 -15.197904
3.928422 -3.196291 -15.597904
3.928422 -3.225291 -15.897904
3.928422 -3.248291 -16.097904
3.928422 -3.275291 -16.397903
3.928422 -3.3102911 -16.697905
3.928422 -3.320291 -16.897903
3.928422 -3.3582909 -17.297903
3.928422 -3.387291 -17.497904
3.928422 -3.3922911 -17.597904
3.928422 -3.4022911 -17.697905
3.928422 -3.3982911 -17.797903
3.928422 -3.4172909 -17.897903
3.928422 -3.429291 -17.997904
3.928422 -3.4402909 -18.097904
3.928422 -3.4512911 -18.197905
3.928422 -3.4602909 -18.297903
3.928422 -3.475291 -18.397903
3.928422 -3.4802909 -18.497904
3.928422 -3.4872911 -18.597904
3.928422 -3.5062909 -18.697905
3.928422 -3.515291 -18.797903
3.928422 -3.5392909 -18.897903
3.928422 -3.5632911 -18.997904
3.928422 -3.5792911 -19.097904
3.928422 -3.587291 -19.197905
3.928422 -3.5962911 -19.297903
3.928422 -3.603291 -19.397903
3.928422 -3.6092911 -19.497904
3.928422 -3.620291 -19.597904
3.928422 -3.6352911 -19.697905
3.928422 -3.633291 -19.797903
3.928422 -3.6422911 -19.897903
3.928422 -3.650291 -19.997904
3.928422 -3.656291 -20.097904
3.928422 -3.666291 -20.197905
3.928422 -3.6552911 -20.297903
3.928422 -3.662291 -20.397903
3.928422 -3.666291 -20.497904
3.928422 -3.6752911 -20.597904
3.928422 -3.6852911 -20.697905
3.928422 -3.6942911 -20.797903
3.928422 -3.7002909 -20.897903
3.928422 -3.712291 -20.997904
3.928422 -3.7232909 -21.097904
3.928422 -3.7242911 -21.197905
3.928422 -3.739291 -21.297903
3.928422 -3.7472911 -21.397903
3.928422 -3.761291 -21.497904
3.928422 -3.778291 -21.597904
3.928422 -3.7832911 -21.697905
3.928422 -3.8002911 -21.797903
3.928422 -3.808291 -21.897903
3.928422 -3.8332911 -21.997904
3.928422 -3.8492911 -22.097904
3.928422 -3.8742909 -22.197905
3.928422 -3.8952911 -22.297903
3.928422 -3.9112909 -22.397903
3.928422 -3.933291 -22.497904
3.928422 -3.955291 -22.597904
3.928422 -3.9832909 -22.697905
3.928422 -4.0022912 -22.797903
3.928422 -4.0222912 -22.897903
3.928422 -4.0392909 -22.997904
3.928422 -4.064291 -23.097904
3.928422 -4.104291 -23.197905
3.928422 -4.1272912 -23.297903
3.928422 -4.1442909 -23.397903
3.928422 -4.1672912 -23.497904
3.928422 -4.1862912 -23.597904
3.928422 -4.2062912 -23.697905
3.928422 -4.2032909 -23.797903
3.928422 -4.1982908 -23.897903
3.928422 -4.1982908 -23.997904
3.928422 -4.2032909 -24.097904
3.928422 -4.2192912 -24.197905
3.928422 -4.2382908 -24.297903
3.928422 -4.2642908 -24.397903
3.928422 -4.281291 -24.497904
3.928422 -4.3002911 -24.597904
3.928422 -4.3432908 -24.697905
3.928422 -4.3652911 -24.797903
3.928422 -4.3882909 -24.897903
3.928422 -4.4272909 -24.997904
3.928422 -4.4502912 -25.097904
3.928422 -4.472291 -25.197905
3.928422 -4.4972911 -25.297903
3.928422 -4.5092912 -25.397903
3.928422 -4.5212908 -25.497904
3.928422 -4.5522909 -25.597904
3.928422 -4.5792909 -25.697905
3.928422 -4.597291 -25.797903
3.928422 -4.6092911 -25.897903
3.928422 -4.6202912 -25.997904
3.928422 -4.6292911 -26.097904
3.928422 -4.643291 -26.197905
3.928422 -4.6702909 -26.297903
3.928422 -4.6932912 -26.397903
3.928422 -4.7112908 -26.497904
3.928422 -4.7302909 -26.597904
3.928422 -4.7502909 -26.697905
3.928422 -4.7652912 -26.797903
3.928422 -4.7852912 -26.897903
3.928422 -4.8062911 -26.997904
3.928422 -4.8442912 -27.097904
3.928422 -4.8642912 -27.197905
3.928422 -4.8742909 -27.297903
3.928422 -4.9022908 -27.397903
3.8284221 -0.307291 21.002096
3.8284221 -0.409291 20.902096
3.8284221 -0.56129098 20.802095
3.8284221 -0.76529098 20.702097
3.8284221 -1.051291 20.602097
3.8284221 -1.268291 20.502096
3.8284221 -1.487291 20.402096
3.8284221 -1.739291 20.302095
3.8284221 -1.9862911 20.202097
3.8284221 -2.2262909 20.102097
3.8284221 -2.4902911 20.002096
3.8284221 -2.679291 19.902096
3.8284221 -2.8452909 19.802095
3.8284221 -3.0222909 19.702097
3.8284221 -3.186291 19.602097
3.8284221 -3.343291 19.502096
3.8284221 -3.551291 19.402096
3.8284221 -3.7722909 19.302095
3.8284221 -3.945291 19.202097
3.8284221 -4.057291 19.102097
3.8284221 -4.090291 18.902096
3.8284221 -4.071291 18.702097
3.8284221 -4.0402908 18.402096
3.8284221 -4.0172911 18.202097
3.8284221 -4.0102911 18.002096
3.8284221 -3.9872911 17.702097
3.8284221 -3.946291 17.402096
3.8284221 -3.933291 17.202097
3.8284221 -3.9022911 17.002096
3.8284221 -3.8842909 16.802095
3.8284221 -3.854291 16.502096
3.8284221 -3.827291 16.202097
3.8284221 -3.8102911 16.002096
3.8284221 -3.7892909 15.702096
3.8284221 -3.7532909 15.402096
3.8284221 -3.738291 15.202096
3.8284221 -3.729291 15.002096
3.8284221 -3.728291 14.802096
3.8284221 -3.7172911 14.202096
3.8284221 -3.7312911 13.802096
3.8284221 -3.7342911 13.502096
3.8284221 -3.666291 12.502096
3.8284221 -3.436291 10.502096
3.8284221 -3.452291 9.9020958
3.8284221 -3.442291 8.8020964
3.8284221 -3.4412911 8.1020956
3.8284221 -3.946291 6.4020958
3.8284221 -3.7662909 1.202096
3.8284221 -3.1942911 -5.0979042
3.8284221 -3.2082911 -6.0979042
3.8284221 -3.2402911 -6.6979041
3.8284221 -3.2492909 -7.1979041
3.8284221 -3.2462909 -7.4979038
3.8284221 -3.196291 -7.8979039
3.8284221 -3.1412909 -8.297904
3.8284221 -3.1022911 -8.5979042
3.8284221 -3.061291 -9.1979036
3.8284221 -3.054291 -9.3979044
3.8284221 -3.0522909 -9.5979042
3.8284221 -3.0172911 -9.9979038
3.8284221 -3.008291 -10.197904
3.8284221 -2.9812911 -11.097904
3.8284221 -2.9802909 -11.897904
3.8284221 -2.9842911 -12.097904
3.8284221 -2.9812911 -12.397904
3.8284221 -2.9972911 -12.597904
3.8284221 -2.992291 -12.797904
3.8284221 -2.9972911 -12.997904
3.8284221 -3.008291 -13.197904
3.8284221 -3.0422909 -13.597904
3.8284221 -3.1082909 -14.497904
3.8284221 -3.1222911 -14.697904
3.8284221 -3.160291 -15.097904
3.8284221 -3.196291 -15.397904
3.8284221 -3.2272911 -15.797904
3.8284221 -3.248291 -15.997904
3.8284221 -3.271291 -16.297903
3.8284221 -3.307291 -16.597904
3.8284221 -3.360291 -17.197905
3.8284221 -3.3822911 -17.497904
3.8284221 -3.3982911 -17.697905
3.8284221 -3.4172909 -17.797903
3.8284221 -3.4252911 -17.897903
3.8284221 -3.439291 -17.997904
3.8284221 -3.4482911 -18.097904
3.8284221 -3.452291 -18.197905
3.8284221 -3.468291 -18.297903
3.8284221 -3.492291 -18.397903
3.8284221 -3.5002911 -18.497904
3.8284221 -3.511291 -18.597904
3.8284221 -3.5232911 -18.697905
3.8284221 -3.5422909 -18.797903
3.8284221 -3.5592909 -18.897903
3.8284221 -3.574291 -18.997904
3.8284221 -3.5862911 -19.097904
3.8284221 -3.594291 -19.197905
3.8284221 -3.6062911 -19.297903
3.8284221 -3.6242909 -19.397903
3.8284221 -3.623291 -19.497904
3.8284221 -3.6342909 -19.597904
3.8284221 -3.637291 -19.697905
3.8284221 -3.640291 -19.797903
3.8284221 -3.6472909 -19.897903
3.8284221 -3.6452911 -19.997904
3.8284221 -3.650291 -20.097904
3.8284221 -3.6612909 -20.197905
3.8284221 -3.6672909 -20.297903
3.8284221 -3.6702909 -20.397903
3.8284221 -3.6742909 -20.497904
3.8284221 -3.6802909 -20.597904
3.8284221 -3.6912911 -20.697905
3.8284221 -3.696291 -20.797903
3.8284221 -3.7102909 -20.897903
3.8284221 -3.719291 -20.997904
3.8284221 -3.7312911 -21.097904
3.8284221 -3.7402911 -21.197905
3.8284221 -3.7532909 -21.297903
3.8284221 -3.761291 -21.397903
3.8284221 -3.775291 -21.497904
3.8284221 -3.7892909 -21.597904
3.8284221 -3.8022909 -21.697905
3.8284221 -3.814291 -21.797903
3.8284221 -3.824291 -21.897903
3.8284221 -3.844291 -21.997904
3.8284221 -3.8522911 -22.097904
3.8284221 -3.8652911 -22.197905
3.8284221 -3.9012909 -22.297903
3.8284221 -3.926291 -22.397903
3.8284221 -3.946291 -22.497904
3.8284221 -3.9712911 -22.597904
3.8284221 -3.988291 -22.697905
3.8284221 -4.005291 -22.797903
3.8284221 -4.0262909 -22.897903
3.8284221 -4.0542908 -22.997904
3.8284221 -4.0732908 -23.097904
3.8284221 -4.104291 -23.197905
3.8284221 -4.1272912 -23.297903
3.8284221 -4.1532912 -23.397903
3.8284221 -4.182291 -23.497904
3.8284221 -4.2052908 -23.597904
3.8284221 -4.216291 -23.697905
3.8284221 -4.2142911 -23.797903
3.8284221 -4.2082911 -23.897903
3.8284221 -4.2062912 -23.997904
3.8284221 -4.2102909 -24.097904
3.8284221 -4.222291 -24.197905
3.8284221 -4.2322912 -24.297903
3.8284221 -4.2492909 -24.397903
3.8284221 -4.275291 -24.497904
3.8284221 -4.3052912 -24.597904
3.8284221 -4.3382912 -24.697905
3.8284221 -4.3632908 -24.797903
3.8284221 -4.4052911 -24.897903
3.8284221 -4.4272909 -24.997904
3.8284221 -4.4502912 -25.097904
3.8284221 -4.4712911 -25.197905
3.8284221 -4.4942908 -25.297903
3.8284221 -4.5132909 -25.397903
3.8284221 -4.5472908 -25.497904
3.8284221 -4.5692911 -25.597904
3.8284221 -4.591291 -25.697905
3.8284221 -4.6132908 -25.797903
3.8284221 -4.6182909 -25.897903
3.8284221 -4.6262908 -25.997904
3.8284221 -4.6382909 -26.097904
3.8284221 -4.649291 -26.197905
3.8284221 -4.6602912 -26.297903
3.8284221 -4.6752911 -26.397903
3.8284221 -4.7032909 -26.497904
3.8284221 -4.7262912 -26.597904
3.8284221 -4.748291 -26.697905
3.8284221 -4.7722912 -26.797903
3.8284221 -4.7982912 -26.897903
3.8284221 -4.8312912 -26.997904
3.8284221 -4.8642912 -27.097904
3.8284221 -4.8832908 -27.197905
3.8284221 -4.8922911 -27.297903
3.8284221 -4.9082909 -27.397903
3.8284221 -4.912291 -27.497904
3.7284219 -0.29029101 21.002096
3.7284219 -0.388291 20.902096
3.7284219 -0.53429103 20.802095
3.7284219 -0.69329101 20.702097
3.7284219 -0.97929102 20.602097
3.7284219 -1.201291 20.502096
3.7284219 -1.424291 20.402096
3.7284219 -1.651291 20.302095
3.7284219 -1.900291 20.202097
3.7284219 -2.153291 20.102097
3.7284219 -2.3982911 20.002096
3.7284219 -2.593291 19.902096
3.7284219 -2.774291 19.802095
3.7284219 -2.9582911 19.702097
3.7284219 -3.127291 19.602097
3.7284219 -3.3032911 19.502096
3.7284219 -3.5092909 19.402096
3.7284219 -3.6842909 19.302095
3.7284219 -3.8622911 19.202097
3.7284219 -4.0172911 19.102097
3.7284219 -4.0752912 19.002096
3.7284219 -4.0782909 18.802095
3.7284219 -4.0542908 18.502096
3.7284219 -4.0402908 18.302095
3.7284219 -4.0072908 17.902096
3.7284219 -3.9602909 17.602097
3.7284219 -3.912291 17.302095
3.7284219 -3.9012909 17.102097
3.7284219 -3.8522911 16.602097
3.7284219 -3.8252909 16.402096
3.7284219 -3.794291 16.102097
3.7284219 -3.7632909 15.902096
3.7284219 -3.7462909 15.602096
3.7284219 -3.7312911 15.302096
3.7284219 -3.718291 15.102096
3.7284219 -3.7132909 14.902096
3.7284219 -3.6842909 14.602096
3.7284219 -3.702291 14.402096
3.7284219 -3.7002909 14.002096
3.7284219 -3.7032909 13.702096
3.7284219 -3.702291 13.402096
3.7284219 -3.6912911 13.202096
3.7284219 -3.696291 12.902096
3.7284219 -3.6742909 12.702096
3.7284219 -3.6472909 12.302096
3.7284219 -3.6182909 12.102096
3.7284219 -3.5922911 11.902096
3.7284219 -3.5782909 11.702096
3.7284219 -3.502291 11.302096
3.7284219 -3.478291 11.002096
3.7284219 -3.4502909 10.302096
3.7284219 -3.4672911 10.102096
3.7284219 -3.4482911 9.5020962
3.7284219 -3.4372909 9.0020962
3.7284219 -3.4632909 7.6020961
3.7284219 -3.8612909 6.9020958
3.7284219 -3.205291 -4.1979041
3.7284219 -3.1972909 -4.797904
3.7284219 -3.225291 -5.6979041
3.7284219 -3.0952909 -8.797904
3.7284219 -3.081291 -8.9979038
3.7284219 -2.998291 -10.597904
3.7284219 -2.9842911 -11.597904
3.7284219 -2.992291 -12.197904
3.7284219 -2.9972911 -12.497904
3.7284219 -2.998291 -12.697904
3.7284219 -3.0172911 -13.097904
3.7284219 -3.025291 -13.297904
3.7284219 -3.044291 -13.497904
3.7284219 -3.0832911 -13.897904
3.7284219 -3.0892911 -14.097904
3.7284219 -3.097291 -14.297904
3.7284219 -3.133291 -14.597904
3.7284219 -3.1572909 -14.897904
3.7284219 -3.176291 -15.197904
3.7284219 -3.205291 -15.597904
3.7284219 -3.2302909 -15.897904
3.7284219 -3.2662909 -16.197905
3.7284219 -3.2772911 -16.397903
3.7284219 -3.3262911 -16.797903
3.7284219 -3.3352909 -16.997904
3.7284219 -3.354291 -17.097904
3.7284219 -3.3842909 -17.397903
3.7284219 -3.3982911 -17.597904
3.7284219 -3.412291 -17.697905
3.7284219 -3.4212911 -17.797903
3.7284219 -3.432291 -17.897903
3.7284219 -3.4412911 -17.997904
3.7284219 -3.4472909 -18.097904
3.7284219 -3.4582911 -18.197905
3.7284219 -3.4742911 -18.297903
3.7284219 -3.4872911 -18.397903
3.7284219 -3.5002911 -18.497904
3.7284219 -3.518291 -18.597904
3.7284219 -3.535291 -18.697905
3.7284219 -3.547291 -18.797903
3.7284219 -3.567291 -18.897903
3.7284219 -3.584291 -18.997904
3.7284219 -3.603291 -19.097904
3.7284219 -3.616291 -19.197905
3.7284219 -3.6242909 -19.297903
3.7284219 -3.630291 -19.397903
3.7284219 -3.6342909 -19.497904
3.7284219 -3.640291 -19.597904
3.7284219 -3.6452911 -19.697905
3.7284219 -3.6552911 -19.797903
3.7284219 -3.662291 -19.897903
3.7284219 -3.663291 -19.997904
3.7284219 -3.6682911 -20.097904
3.7284219 -3.672291 -20.197905
3.7284219 -3.6772909 -20.297903
3.7284219 -3.6812911 -20.397903
3.7284219 -3.683291 -20.497904
3.7284219 -3.686291 -20.597904
3.7284219 -3.689291 -20.697905
3.7284219 -3.705291 -20.797903
3.7284219 -3.725291 -20.897903
3.7284219 -3.7242911 -20.997904
3.7284219 -3.735291 -21.097904
3.7284219 -3.7442911 -21.197905
3.7284219 -3.758291 -21.297903
3.7284219 -3.762291 -21.397903
3.7284219 -3.7732911 -21.497904
3.7284219 -3.7892909 -21.597904
3.7284219 -3.801291 -21.697905
3.7284219 -3.817291 -21.797903
3.7284219 -3.8282909 -21.897903
3.7284219 -3.850291 -21.997904
3.7284219 -3.8712909 -22.097904
3.7284219 -3.893291 -22.197905
3.7284219 -3.9082911 -22.297903
3.7284219 -3.926291 -22.397903
3.7284219 -3.9442911 -22.497904
3.7284219 -3.9672911 -22.597904
3.7284219 -3.985291 -22.697905
3.7284219 -4.0092912 -22.797903
3.7284219 -4.0352912 -22.897903
3.7284219 -4.057291 -22.997904
3.7284219 -4.084291 -23.097904
3.7284219 -4.1012912 -23.197905
3.7284219 -4.1332908 -23.297903
3.7284219 -4.1642909 -23.397903
3.7284219 -4.1872911 -23.497904
3.7284219 -4.2082911 -23.597904
3.7284219 -4.216291 -23.697905
3.7284219 -4.209291 -23.797903
3.7284219 -4.2082911 -23.897903
3.7284219 -4.209291 -23.997904
3.7284219 -4.2082911 -24.097904
3.7284219 -4.2142911 -24.197905
3.7284219 -4.2312908 -24.297903
3.7284219 -4.2562909 -24.397903
3.7284219 -4.2772908 -24.497904
3.7284219 -4.3032908 -24.597904
3.7284219 -4.3362908 -24.697905
3.7284219 -4.367291 -24.797903
3.7284219 -4.4032912 -24.897903
3.7284219 -4.4252911 -24.997904
3.7284219 -4.4492912 -25.097904
3.7284219 -4.466291 -25.197905
3.7284219 -4.491291 -25.297903
3.7284219 -4.5192909 -25.397903
3.7284219 -4.551291 -25.497904
3.7284219 -4.5822911 -25.597904
3.7284219 -4.5962911 -25.697905
3.7284219 -4.604291 -25.797903
3.7284219 -4.617291 -25.897903
3.7284219 -4.6342912 -25.997904
3.7284219 -4.6572909 -26.097904
3.7284219 -4.6682911 -26.197905
3.7284219 -4.6872911 -26.297903
3.7284219 -4.7122908 -26.397903
3.7284219 -4.728291 -26.497904
3.7284219 -4.7392912 -26.597904
3.7284219 -4.7582908 -26.697905
3.7284219 -4.7832909 -26.797903
3.7284219 -4.8052912 -26.897903
3.7284219 -4.8312912 -26.997904
3.7284219 -4.853291 -27.097904
3.7284219 -4.873291 -27.197905
3.7284219 -4.873291 -27.297903
3.7284219 -4.8702912 -27.397903
3.7284219 -4.8572912 -27.497904
3.628422 -0.129291 21.002096
3.628422 -0.24429099 20.902096
3.628422 -0.47229099 20.802095
3.628422 -0.661291 20.702097
3.628422 -0.89629102 20.602097
3.628422 -1.1342911 20.502096
3.628422 -1.355291 20.402096
3.628422 -1.572291 20.302095
3.628422 -1.803291 20.202097
3.628422 -2.097291 20.102097
3.628422 -2.341291 20.002096
3.628422 -2.5492909 19.902096
3.628422 -2.699291 19.802095
3.628422 -2.887291 19.702097
3.628422 -3.080291 19.602097
3.628422 -3.291291 19.502096
3.628422 -3.4512911 19.402096
3.628422 -3.6312909 19.302095
3.628422 -3.8162911 19.202097
3.628422 -3.985291 19.102097
3.628422 -4.070291 19.002096
3.628422 -4.0952911 18.902096
3.628422 -4.077291 18.702097
3.628422 -4.0392909 18.402096
3.628422 -4.0102911 18.102097
3.628422 -3.978291 17.802095
3.628422 -3.932291 17.402096
3.628422 -3.9072909 17.202097
3.628422 -3.8742909 16.902096
3.628422 -3.8512909 16.702097
3.628422 -3.8222909 16.502096
3.628422 -3.8052909 16.302095
3.628422 -3.7632909 16.002096
3.628422 -3.751291 15.802096
3.628422 -3.729291 15.502096
3.628422 -3.7112911 15.202096
3.628422 -3.706291 15.002096
3.628422 -3.7002909 14.702096
3.628422 -3.6912911 14.302096
3.628422 -3.695291 14.102096
3.628422 -3.6482911 12.502096
3.628422 -3.5292909 11.502096
3.628422 -3.4472909 10.802096
3.628422 -3.445291 10.502096
3.628422 -3.4632909 9.9020958
3.628422 -3.4402909 9.202096
3.628422 -3.4212911 8.702096
3.628422 -3.439291 8.3020964
3.628422 -3.6062911 7.1020961
3.628422 -3.258291 -2.6979041
3.628422 -3.2332909 -3.597904
3.628422 -3.238291 -5.3979039
3.628422 -3.251291 -7.5979042
3.628422 -3.232291 -7.8979039
3.628422 -3.160291 -8.297904
3.628422 -3.126291 -8.4979038
3.628422 -3.0532911 -9.5979042
3.628422 -3.047291 -9.797904
3.628422 -3.031291 -9.9979038
3.628422 -3.025291 -10.197904
3.628422 -3.0162909 -10.397904
3.628422 -3.0002911 -10.797904
3.628422 -2.9942911 -10.997904
3.628422 -2.991291 -11.197904
3.628422 -2.9842911 -11.397904
3.628422 -2.992291 -11.797904
3.628422 -2.9972911 -11.997904
3.628422 -3.008291 -12.297904
3.628422 -3.008291 -12.897904
3.628422 -3.0232911 -13.197904
3.628422 -3.0322909 -13.397904
3.628422 -3.064291 -13.697904
3.628422 -3.1092911 -14.197904
3.628422 -3.1152911 -14.397904
3.628422 -3.1412909 -14.797904
3.628422 -3.1812911 -15.097904
3.628422 -3.189291 -15.297904
3.628422 -3.202291 -15.497904
3.628422 -3.2312911 -15.797904
3.628422 -3.264291 -16.097904
3.628422 -3.285291 -16.297903
3.628422 -3.301291 -16.497904
3.628422 -3.321291 -16.697905
3.628422 -3.343291 -16.897903
3.628422 -3.3752911 -17.297903
3.628422 -3.4182911 -17.597904
3.628422 -3.446291 -17.897903
3.628422 -3.4542911 -17.997904
3.628422 -3.4642911 -18.097904
3.628422 -3.478291 -18.197905
3.628422 -3.492291 -18.297903
3.628422 -3.5032909 -18.397903
3.628422 -3.514291 -18.497904
3.628422 -3.5302911 -18.597904
3.628422 -3.547291 -18.697905
3.628422 -3.557291 -18.797903
3.628422 -3.5852909 -18.897903
3.628422 -3.5962911 -18.997904
3.628422 -3.6092911 -19.097904
3.628422 -3.6112909 -19.197905
3.628422 -3.6182909 -19.297903
3.628422 -3.6252911 -19.397903
3.628422 -3.636291 -19.497904
3.628422 -3.6422911 -19.597904
3.628422 -3.6452911 -19.697905
3.628422 -3.6482911 -19.797903
3.628422 -3.6582911 -19.897903
3.628422 -3.6572909 -19.997904
3.628422 -3.659291 -20.097904
3.628422 -3.6552911 -20.197905
3.628422 -3.662291 -20.297903
3.628422 -3.6672909 -20.397903
3.628422 -3.673291 -20.497904
3.628422 -3.6852911 -20.597904
3.628422 -3.6912911 -20.697905
3.628422 -3.7012911 -20.797903
3.628422 -3.7032909 -20.897903
3.628422 -3.7112911 -20.997904
3.628422 -3.7242911 -21.097904
3.628422 -3.7462909 -21.197905
3.628422 -3.7572911 -21.297903
3.628422 -3.7692909 -21.397903
3.628422 -3.784291 -21.497904
3.628422 -3.8002911 -21.597904
3.628422 -3.8052909 -21.697905
3.628422 -3.8252909 -21.797903
3.628422 -3.8332911 -21.897903
3.628422 -3.854291 -21.997904
3.628422 -3.876291 -22.097904
3.628422 -3.896291 -22.197905
3.628422 -3.916291 -22.297903
3.628422 -3.929291 -22.397903
3.628422 -3.9502909 -22.497904
3.628422 -3.9772911 -22.597904
3.628422 -3.998291 -22.697905
3.628422 -4.0172911 -22.797903
3.628422 -4.0392909 -22.897903
3.628422 -4.0622911 -22.997904
3.628422 -4.0832911 -23.097904
3.628422 -4.1112909 -23.197905
3.628422 -4.136291 -23.297903
3.628422 -4.1532912 -23.397903
3.628422 -4.1792908 -23.497904
3.628422 -4.2192912 -23.597904
3.628422 -4.241291 -23.697905
3.628422 -4.2452912 -23.797903
3.628422 -4.2312908 -23.897903
3.628422 -4.222291 -23.997904
3.628422 -4.2232909 -24.097904
3.628422 -4.2212911 -24.197905
3.628422 -4.2372909 -24.297903
3.628422 -4.2532911 -24.397903
3.628422 -4.275291 -24.497904
3.628422 -4.2982912 -24.597904
3.628422 -4.3252912 -24.697905
3.628422 -4.3562908 -24.797903
3.628422 -4.3942909 -24.897903
3.628422 -4.4162912 -24.997904
3.628422 -4.4432912 -25.097904
3.628422 -4.472291 -25.197905
3.628422 -4.505291 -25.297903
3.628422 -4.5422912 -25.397903
3.628422 -4.5622911 -25.497904
3.628422 -4.5802908 -25.597904
3.628422 -4.5962911 -25.697905
3.628422 -4.6082911 -25.797903
3.628422 -4.6182909 -25.897903
3.628422 -4.6352911 -25.997904
3.628422 -4.6532912 -26.097904
3.628422 -4.6642909 -26.197905
3.628422 -4.6802912 -26.297903
3.628422 -4.6922908 -26.397903
3.628422 -4.7122908 -26.497904
3.628422 -4.7362909 -26.597904
3.628422 -4.7512908 -26.697905
3.628422 -4.7762909 -26.797903
3.628422 -4.7972908 -26.897903
3.628422 -4.8302908 -26.997904
3.628422 -4.8562908 -27.097904
3.628422 -4.8622909 -27.197905
3.628422 -4.867291 -27.297903
3.628422 -4.8512912 -27.397903
3.5284221 0.0047089998 21.102097
3.5284221 -0.096290998 21.002096
3.5284221 -0.254291 20.902096
3.5284221 -0.481291 20.802095
3.5284221 -0.64429098 20.702097
3.5284221 -0.85529101 20.602097
3.5284221 -1.097291 20.502096
3.5284221 -1.332291 20.402096
3.5284221 -1.524291 20.302095
3.5284221 -1.8282911 20.202097
3.5284221 -2.0962911 20.102097
3.5284221 -2.3232911 20.002096
3.5284221 -2.5162909 19.902096
3.5284221 -2.7042911 19.802095
3.5284221 -2.8882909 19.702097
3.5284221 -3.0992911 19.602097
3.5284221 -3.2692909 19.502096
3.5284221 -3.4302909 19.402096
3.5284221 -3.6182909 19.302095
3.5284221 -3.807291 19.202097
3.5284221 -3.962291 19.102097
3.5284221 -4.090291 18.802095
3.5284221 -4.0612912 18.502096
3.5284221 -4.0422912 18.302095
3.5284221 -3.9672911 17.902096
3.5284221 -3.946291 17.702097
3.5284221 -3.922291 17.502096
3.5284221 -3.8792911 17.102097
3.5284221 -3.794291 16.402096
3.5284221 -3.7772911 16.202097
3.5284221 -3.7562909 15.902096
3.5284221 -3.7362909 15.702096
3.5284221 -3.7212911 15.302096
3.5284221 -3.705291 15.102096
3.5284221 -3.6942911 14.802096
3.5284221 -3.689291 14.502096
3.5284221 -3.696291 14.202096
3.5284221 -3.6912911 13.902096
3.5284221 -3.6912911 13.702096
3.5284221 -3.696291 13.502096
3.5284221 -3.6902909 13.202096
3.5284221 -3.672291 13.002096
3.5284221 -3.6112909 12.302096
3.5284221 -3.5922911 12.102096
3.5284221 -3.561291 11.902096
3.5284221 -3.4712911 11.202096
3.5284221 -3.4602909 11.002096
3.5284221 -3.4602909 9.6020956
3.5284221 -3.4512911 9.4020958
3.5284221 -3.4412911 8.9020958
3.5284221 -3.469291 8.0020962
3.5284221 -3.9302909 6.1020961
3.5284221 -3.8652911 5.3020959
3.5284221 -3.8102911 4.702096
3.5284221 -3.7892909 4.0020962
3.5284221 -3.7632909 2.6020961
3.5284221 -3.387291 -1.597904
3.5284221 -3.3252909 -2.1979041
3.5284221 -3.235291 -5.8979039
3.5284221 -3.2592909 -6.1979041
3.5284221 -3.2692909 -6.4979038
3.5284221 -3.274291 -6.9979038
3.5284221 -3.2632909 -7.3979039
3.5284221 -3.1022911 -8.797904
3.5284221 -3.087291 -9.1979036
3.5284221 -3.0782909 -9.3979044
3.5284221 -3.012291 -11.597904
3.5284221 -3.0102911 -12.197904
3.5284221 -3.015291 -12.397904
3.5284221 -3.0162909 -12.597904
3.5284221 -3.021291 -12.797904
3.5284221 -3.028291 -12.997904
3.5284221 -3.0432911 -13.297904
3.5284221 -3.0592909 -13.597904
3.5284221 -3.071291 -13.797904
3.5284221 -3.0982909 -13.997904
3.5284221 -3.1192911 -14.297904
3.5284221 -3.133291 -14.497904
3.5284221 -3.169291 -14.897904
3.5284221 -3.1942911 -15.197904
3.5284221 -3.2102909 -15.397904
3.5284221 -3.2372911 -15.697904
3.5284221 -3.2542911 -15.897904
3.5284221 -3.330291 -16.597904
3.5284221 -3.347291 -16.797903
3.5284221 -3.3592911 -16.997904
3.5284221 -3.3752911 -17.197905
3.5284221 -3.4082911 -17.397903
3.5284221 -3.426291 -17.497904
3.5284221 -3.4412911 -17.597904
3.5284221 -3.4432909 -17.697905
3.5284221 -3.445291 -17.797903
3.5284221 -3.4502909 -17.897903
3.5284221 -3.465291 -17.997904
3.5284221 -3.4812911 -18.097904
3.5284221 -3.4962909 -18.197905
3.5284221 -3.511291 -18.297903
3.5284221 -3.5302911 -18.397903
3.5284221 -3.551291 -18.497904
3.5284221 -3.564291 -18.597904
3.5284221 -3.574291 -18.697905
3.5284221 -3.5922911 -18.797903
3.5284221 -3.5962911 -18.897903
3.5284221 -3.597291 -18.997904
3.5284221 -3.6052909 -19.097904
3.5284221 -3.616291 -19.197905
3.5284221 -3.6252911 -19.297903
3.5284221 -3.637291 -19.397903
3.5284221 -3.6422911 -19.497904
3.5284221 -3.646291 -19.597904
3.5284221 -3.6472909 -19.697905
3.5284221 -3.6482911 -19.797903
3.5284221 -3.653291 -19.897903
3.5284221 -3.6552911 -19.997904
3.5284221 -3.662291 -20.097904
3.5284221 -3.669291 -20.197905
3.5284221 -3.672291 -20.297903
3.5284221 -3.6782911 -20.397903
3.5284221 -3.683291 -20.497904
3.5284221 -3.692291 -20.597904
3.5284221 -3.7002909 -20.697905
3.5284221 -3.712291 -20.797903
3.5284221 -3.7212911 -20.897903
3.5284221 -3.742291 -20.997904
3.5284221 -3.7572911 -21.097904
3.5284221 -3.7602911 -21.197905
3.5284221 -3.7662909 -21.297903
3.5284221 -3.7822909 -21.397903
3.5284221 -3.7892909 -21.497904
3.5284221 -3.797291 -21.597904
3.5284221 -3.8002911 -21.697905
3.5284221 -3.830291 -21.797903
3.5284221 -3.8452909 -21.897903
3.5284221 -3.863291 -21.997904
3.5284221 -3.8792911 -22.097904
3.5284221 -3.8882909 -22.197905
3.5284221 -3.9182911 -22.297903
3.5284221 -3.9432909 -22.397903
3.5284221 -3.972291 -22.497904
3.5284221 -3.9932909 -22.597904
3.5284221 -4.012291 -22.697905
3.5284221 -4.0212908 -22.797903
3.5284221 -4.0502911 -22.897903
3.5284221 -4.071291 -22.997904
3.5284221 -4.0922909 -23.097904
3.5284221 -4.1222911 -23.197905
3.5284221 -4.137291 -23.297903
3.5284221 -4.1592908 -23.397903
3.5284221 -4.1872911 -23.497904
3.5284221 -4.2262912 -23.597904
3.5284221 -4.2522912 -23.697905
3.5284221 -4.2672911 -23.797903
3.5284221 -4.275291 -23.897903
3.5284221 -4.2602911 -23.997904
3.5284221 -4.2582908 -24.097904
3.5284221 -4.2532911 -24.197905
3.5284221 -4.2492909 -24.297903
3.5284221 -4.2542911 -24.397903
3.5284221 -4.2762909 -24.497904
3.5284221 -4.2952909 -24.597904
3.5284221 -4.3242912 -24.697905
3.5284221 -4.3502908 -24.797903
3.5284221 -4.3782911 -24.897903
3.5284221 -4.4162912 -24.997904
3.5284221 -4.446291 -25.097904
3.5284221 -4.4752908 -25.197905
3.5284221 -4.4992909 -25.297903
3.5284221 -4.5352912 -25.397903
3.5284221 -4.5602908 -25.497904
3.5284221 -4.5802908 -25.597904
3.5284221 -4.597291 -25.697905
3.5284221 -4.6202912 -25.797903
3.5284221 -4.623291 -25.897903
3.5284221 -4.6402912 -25.997904
3.5284221 -4.6472912 -26.097904
3.5284221 -4.662291 -26.197905
3.5284221 -4.6802912 -26.297903
3.5284221 -4.7032909 -26.397903
3.5284221 -4.7202911 -26.497904
3.5284221 -4.7432909 -26.597904
3.5284221 -4.761291 -26.697905
3.5284221 -4.7832909 -26.797903
3.5284221 -4.814291 -26.897903
3.5284221 -4.8332911 -26.997904
3.5284221 -4.8682909 -27.097904
3.5284221 -4.8782911 -27.197905
3.5284221 -4.880291 -27.297903
3.5284221 -4.8812909 -27.397903
3.428422 1.453709 21.102097
3.428422 1.478709 21.002096
3.428422 -0.212291 20.902096
3.428422 -0.41729099 20.802095
3.428422 -0.59329098 20.702097
3.428422 -0.77929097 20.602097
3.428422 -1.0322911 20.502096
3.428422 -1.314291 20.402096
3.428422 -1.507291 20.302095
3.428422 -1.740291 20.202097
3.428422 -1.997291 20.102097
3.428422 -2.232291 20.002096
3.428422 -2.459291 19.902096
3.428422 -2.6772909 19.802095
3.428422 -2.873291 19.702097
3.428422 -3.0662911 19.602097
3.428422 -3.2302909 19.502096
3.428422 -3.390291 19.402096
3.428422 -3.5652909 19.302095
3.428422 -3.791291 19.202097
3.428422 -3.959291 19.102097
3.428422 -4.0792909 19.002096
3.428422 -4.1092911 18.802095
3.428422 -4.0762911 18.602097
3.428422 -4.0352912 18.402096
3.428422 -4.018291 18.202097
3.428422 -3.9812911 18.002096
3.428422 -3.959291 17.802095
3.428422 -3.9432909 17.602097
3.428422 -3.8982911 17.302095
3.428422 -3.8652911 17.002096
3.428422 -3.843291 16.802095
3.428422 -3.811291 16.602097
3.428422 -3.7462909 16.102097
3.428422 -3.7342911 15.802096
3.428422 -3.719291 15.502096
3.428422 -3.705291 15.202096
3.428422 -3.683291 15.002096
3.428422 -3.673291 14.702096
3.428422 -3.6772909 14.302096
3.428422 -3.6802909 14.002096
3.428422 -3.6742909 13.602096
3.428422 -3.639291 12.802096
3.428422 -3.614291 12.602096
3.428422 -3.498291 11.602096
3.428422 -3.4352911 10.802096
3.428422 -3.452291 10.302096
3.428422 -3.4842911 10.002096
3.428422 -3.4732909 9.8020964
3.428422 -3.469291 7.6020961
3.428422 -3.4962909 7.3020959
3.428422 -3.8062911 7.0020962
3.428422 -4.0092912 6.702096
3.428422 -3.9712911 6.4020958
3.428422 -3.9012909 5.702096
3.428422 -3.2462909 -4.9979038
3.428422 -3.2572911 -5.5979042
3.428422 -3.264291 -7.6979041
3.428422 -3.2202909 -7.9979038
3.428422 -3.182291 -8.1979036
3.428422 -3.1522911 -8.3979044
3.428422 -3.103291 -8.9979038
3.428422 -3.070291 -9.6979036
3.428422 -3.0692911 -9.8979044
3.428422 -3.054291 -10.297904
3.428422 -3.0432911 -10.497904
3.428422 -3.0272911 -10.697904
3.428422 -3.021291 -10.897904
3.428422 -3.025291 -11.097904
3.428422 -3.0262909 -12.097904
3.428422 -3.0192909 -12.297904
3.428422 -3.025291 -12.497904
3.428422 -3.0302911 -12.697904
3.428422 -3.0392909 -12.897904
3.428422 -3.0562911 -13.197904
3.428422 -3.064291 -13.497904
3.428422 -3.1022911 -13.897904
3.428422 -3.1152911 -14.097904
3.428422 -3.150291 -14.397904
3.428422 -3.169291 -14.697904
3.428422 -3.1852911 -14.997904
3.428422 -3.2142911 -15.297904
3.428422 -3.2302909 -15.497904
3.428422 -3.258291 -15.797904
3.428422 -3.274291 -15.997904
3.428422 -3.287291 -16.197905
3.428422 -3.3092909 -16.397903
3.428422 -3.357291 -16.697905
3.428422 -3.3622911 -16.897903
3.428422 -3.3882909 -17.097904
3.428422 -3.406291 -17.297903
3.428422 -3.4142909 -17.397903
3.428422 -3.429291 -17.597904
3.428422 -3.446291 -17.697905
3.428422 -3.479291 -17.897903
3.428422 -3.4962909 -17.997904
3.428422 -3.5002911 -18.097904
3.428422 -3.514291 -18.197905
3.428422 -3.5232911 -18.297903
3.428422 -3.5332911 -18.397903
3.428422 -3.5422909 -18.497904
3.428422 -3.5692911 -18.597904
3.428422 -3.581291 -18.697905
3.428422 -3.5892911 -18.797903
3.428422 -3.597291 -18.897903
3.428422 -3.6092911 -18.997904
3.428422 -3.6092911 -19.097904
3.428422 -3.633291 -19.197905
3.428422 -3.637291 -19.297903
3.428422 -3.6442909 -19.397903
3.428422 -3.639291 -19.497904
3.428422 -3.6412909 -19.597904
3.428422 -3.6452911 -19.697905
3.428422 -3.6482911 -19.797903
3.428422 -3.650291 -19.897903
3.428422 -3.6552911 -19.997904
3.428422 -3.6612909 -20.097904
3.428422 -3.6682911 -20.197905
3.428422 -3.6782911 -20.297903
3.428422 -3.686291 -20.397903
3.428422 -3.6912911 -20.497904
3.428422 -3.689291 -20.597904
3.428422 -3.692291 -20.697905
3.428422 -3.6972909 -20.797903
3.428422 -3.7112911 -20.897903
3.428422 -3.719291 -20.997904
3.428422 -3.729291 -21.097904
3.428422 -3.745291 -21.197905
3.428422 -3.761291 -21.297903
3.428422 -3.7662909 -21.397903
3.428422 -3.7892909 -21.497904
3.428422 -3.8062911 -21.597904
3.428422 -3.8192911 -21.697905
3.428422 -3.8362911 -21.797903
3.428422 -3.847291 -21.897903
3.428422 -3.8692911 -21.997904
3.428422 -3.8822911 -22.097904
3.428422 -3.9112909 -22.197905
3.428422 -3.926291 -22.297903
3.428422 -3.949291 -22.397903
3.428422 -3.9712911 -22.497904
3.428422 -3.9872911 -22.597904
3.428422 -4.0022912 -22.697905
3.428422 -4.0282912 -22.797903
3.428422 -4.044291 -22.897903
3.428422 -4.0652909 -22.997904
3.428422 -4.090291 -23.097904
3.428422 -4.1152911 -23.197905
3.428422 -4.1332908 -23.297903
3.428422 -4.1712909 -23.397903
3.428422 -4.2082911 -23.497904
3.428422 -4.2332911 -23.597904
3.428422 -4.2582908 -23.697905
3.428422 -4.287291 -23.797903
3.428422 -4.308291 -23.897903
3.428422 -4.281291 -23.997904
3.428422 -4.2712908 -24.097904
3.428422 -4.2722912 -24.197905
3.428422 -4.275291 -24.297903
3.428422 -4.275291 -24.397903
3.428422 -4.2772908 -24.497904
3.428422 -4.3062911 -24.597904
3.428422 -4.3312912 -24.697905
3.428422 -4.3562908 -24.797903
3.428422 -4.3812909 -24.897903
3.428422 -4.4102912 -24.997904
3.428422 -4.4552908 -25.097904
3.428422 -4.4822912 -25.197905
3.428422 -4.5132909 -25.297903
3.428422 -4.5362911 -25.397903
3.428422 -4.551291 -25.497904
3.428422 -4.5682912 -25.597904
3.428422 -4.597291 -25.697905
3.428422 -4.6192908 -25.797903
3.428422 -4.6352911 -25.897903
3.428422 -4.6422911 -25.997904
3.428422 -4.6532912 -26.097904
3.428422 -4.6642909 -26.197905
3.428422 -4.6802912 -26.297903
3.428422 -4.7062912 -26.397903
3.428422 -4.7202911 -26.497904
3.428422 -4.7392912 -26.597904
3.428422 -4.7592912 -26.697905
3.428422 -4.7802911 -26.797903
3.428422 -4.8022909 -26.897903
3.428422 -4.8352909 -26.997904
3.428422 -4.8592911 -27.097904
3.428422 -4.8792911 -27.197905
3.428422 -4.8852911 -27.297903
3.428422 -4.9012909 -27.397903
3.3284221 1.435709 21.202097
3.3284221 1.412709 21.102097
3.3284221 1.382709 21.002096
3.3284221 -0.18529101 20.902096
3.3284221 -0.40529099 20.802095
3.3284221 -0.58029097 20.702097
3.3284221 -0.75029099 20.602097
3.3284221 -1.042291 20.502096
3.3284221 -1.288291 20.402096
3.3284221 -1.467291 20.302095
3.3284221 -1.694291 20.202097
3.3284221 -1.955291 20.102097
3.3284221 -2.206291 20.002096
3.3284221 -2.4612911 19.902096
3.3284221 -2.669291 19.802095
3.3284221 -2.857291 19.702097
3.3284221 -3.0362909 19.602097
3.3284221 -3.209291 19.502096
3.3284221 -3.364291 19.402096
3.3284221 -3.5632911 19.302095
3.3284221 -3.739291 19.202097
3.3284221 -3.9282911 19.102097
3.3284221 -4.071291 19.002096
3.3284221 -4.103291 18.902096
3.3284221 -4.0782909 18.702097
3.3284221 -4.0422912 18.502096
3.3284221 -4.0092912 18.302095
3.3284221 -3.9942911 18.102097
3.3284221 -3.9542911 17.902096
3.3284221 -3.9352911 17.702097
3.3284221 -3.889291 17.402096
3.3284221 -3.8682909 17.202097
3.3284221 -3.847291 16.902096
3.3284221 -3.817291 16.702097
3.3284221 -3.7962911 16.502096
3.3284221 -3.7832911 16.302095
3.3284221 -3.745291 16.002096
3.3284221 -3.725291 15.702096
3.3284221 -3.702291 15.402096
3.3284221 -3.6902909 15.102096
3.3284221 -3.683291 14.802096
3.3284221 -3.679291 14.602096
3.3284221 -3.6752911 14.402096
3.3284221 -3.6802909 14.102096
3.3284221 -3.672291 13.702096
3.3284221 -3.6452911 13.202096
3.3284221 -3.630291 13.002096
3.3284221 -3.495291 11.802096
3.3284221 -3.4512911 11.402096
3.3284221 -3.4182911 10.502096
3.3284221 -3.4712911 9.6020956
3.3284221 -3.4672911 9.1020956
3.3284221 -3.4502909 8.8020964
3.3284221 -3.468291 8.3020964
3.3284221 -3.2722909 -3.097904
3.3284221 -3.255291 -3.8979039
3.3284221 -3.2432909 -4.297904
3.3284221 -3.248291 -4.6979041
3.3284221 -3.262291 -5.297904
3.3284221 -3.301291 -6.6979041
3.3284221 -3.2832911 -7.297904
3.3284221 -3.126291 -8.5979042
3.3284221 -3.137291 -8.797904
3.3284221 -3.094291 -9.4979038
3.3284221 -3.0632911 -10.097904
3.3284221 -3.0362909 -11.297904
3.3284221 -3.0322909 -11.497904
3.3284221 -3.038291 -11.697904
3.3284221 -3.034291 -11.897904
3.3284221 -3.025291 -12.197904
3.3284221 -3.0322909 -12.397904
3.3284221 -3.034291 -12.997904
3.3284221 -3.0632911 -13.397904
3.3284221 -3.077291 -13.697904
3.3284221 -3.094291 -13.997904
3.3284221 -3.126291 -14.297904
3.3284221 -3.1472909 -14.497904
3.3284221 -3.186291 -14.797904
3.3284221 -3.2102909 -15.097904
3.3284221 -3.2312911 -15.397904
3.3284221 -3.262291 -15.697904
3.3284221 -3.3362911 -16.497904
3.3284221 -3.393291 -16.897903
3.3284221 -3.403291 -16.997904
3.3284221 -3.410291 -17.197905
3.3284221 -3.436291 -17.397903
3.3284221 -3.4502909 -17.597904
3.3284221 -3.4632909 -17.697905
3.3284221 -3.4712911 -17.797903
3.3284221 -3.482291 -17.897903
3.3284221 -3.495291 -17.997904
3.3284221 -3.5072911 -18.097904
3.3284221 -3.5192909 -18.197905
3.3284221 -3.534291 -18.297903
3.3284221 -3.551291 -18.397903
3.3284221 -3.5722909 -18.497904
3.3284221 -3.5792911 -18.597904
3.3284221 -3.584291 -18.697905
3.3284221 -3.587291 -18.797903
3.3284221 -3.6022911 -18.897903
3.3284221 -3.6122911 -18.997904
3.3284221 -3.6222911 -19.097904
3.3284221 -3.6222911 -19.197905
3.3284221 -3.620291 -19.297903
3.3284221 -3.617291 -19.397903
3.3284221 -3.6222911 -19.497904
3.3284221 -3.6282909 -19.597904
3.3284221 -3.636291 -19.697905
3.3284221 -3.639291 -19.797903
3.3284221 -3.6442909 -19.897903
3.3284221 -3.650291 -19.997904
3.3284221 -3.650291 -20.097904
3.3284221 -3.6512909 -20.197905
3.3284221 -3.666291 -20.297903
3.3284221 -3.6812911 -20.397903
3.3284221 -3.696291 -20.497904
3.3284221 -3.706291 -20.597904
3.3284221 -3.7142911 -20.697905
3.3284221 -3.7212911 -20.797903
3.3284221 -3.7302909 -20.897903
3.3284221 -3.7342911 -20.997904
3.3284221 -3.741291 -21.097904
3.3284221 -3.7502911 -21.197905
3.3284221 -3.7672911 -21.297903
3.3284221 -3.7892909 -21.397903
3.3284221 -3.8002911 -21.497904
3.3284221 -3.808291 -21.597904
3.3284221 -3.8232911 -21.697905
3.3284221 -3.840291 -21.797903
3.3284221 -3.8622911 -21.897903
3.3284221 -3.8722911 -21.997904
3.3284221 -3.9012909 -22.097904
3.3284221 -3.9182911 -22.197905
