# .PCD v0.7 - Point Cloud Data file format
VERSION 0.7
FIELDS x y z
SIZE 4 4 4
TYPE F F F
COUNT 1 1 1
WIDTH 1588
HEIGHT 1
VIEWPOINT 0 0 0 1 0 0 0
POINTS 1588
DATA ascii
-0.67229098 -18.319904 7.2974219
-0.432291 -17.719904 7.2974219
-0.234291 -17.219904 7.2974219
-0.072291002 -16.919905 7.2974219
0.090709001 -16.519903 7.2974219
0.192709 -16.319904 7.2974219
0.77170902 -15.119904 7.2974219
1.020709 -14.619904 7.2974219
1.496709 -13.619904 7.2974219
1.848709 -12.919904 7.2974219
2.113709 -12.419904 7.2974219
2.4307089 -11.819904 7.2974219
2.8847089 -10.919904 7.2974219
3.077709 -10.519904 7.2974219
3.2697091 -10.119904 7.2974219
3.521709 -9.5199041 7.2974219
3.9737091 -8.2199039 7.2974219
4.1217089 -7.7199039 7.2974219
4.2817092 -7.119904 7.2974219
4.389709 -6.619904 7.2974219
4.4327092 -6.3199039 7.2974219
4.566709 -5.5199041 7.2974219
4.6037092 -5.3199039 7.2974219
4.6437092 -4.8199039 7.2974219
4.6827092 -4.0199041 7.2974219
4.6967092 -3.619904 7.2974219
4.6767092 -3.119904 7.2974219
4.6757088 -2.8199041 7.2974219
4.5177088 -1.119904 7.2974219
4.3947091 -0.019904001 7.2974219
4.316709 0.48009601 7.2974219
4.1847091 1.080096 7.2974219
4.1297088 1.480096 7.2974219
4.0687089 1.7800961 7.2974219
3.9667089 2.1800959 7.2974219
3.6907091 3.380096 7.2974219
3.5027089 4.1800961 7.2974219
3.385709 4.6800961 7.2974219
3.214709 5.4800959 7.2974219
2.9507091 6.6800961 7.2974219
2.8587091 7.2800961 7.2974219
2.738709 7.880096 7.2974219
2.5617089 8.7800961 7.2974219
2.4767089 9.1800957 7.2974219
2.3577089 9.9800959 7.2974219
2.287709 10.380096 7.2974219
2.1837089 10.980096 7.2974219
1.9677089 12.580096 7.2974219
1.9547091 12.880096 7.2974219
1.8937089 13.280096 7.2974219
1.868709 13.580096 7.2974219
1.859709 13.880096 7.2974219
1.820709 14.480096 7.2974219
1.812709 14.780096 7.2974219
1.807709 15.280096 7.2974219
1.821709 16.480097 7.2974219
1.1157089 17.180096 7.2974219
0.56570899 17.480097 7.2974219
0.242709 17.680096 7.2974219
-0.014291 17.880096 7.2974219
-3.353291 17.980097 7.2974219
-3.9832909 18.080095 7.2974219
-3.409291 -26.619904 7.197422
-3.172291 -26.419905 7.197422
-2.946291 -25.919905 7.197422
-2.9072909 -25.619904 7.197422
-2.8582909 -24.919905 7.197422
-2.7672911 -24.419905 7.197422
-2.7002909 -24.019903 7.197422
-2.6292911 -23.719904 7.197422
-2.547291 -23.419905 7.197422
-2.4612911 -23.119904 7.197422
-2.1942911 -22.319904 7.197422
-1.757291 -21.119904 7.197422
-1.586291 -20.719904 7.197422
-1.4202909 -20.319904 7.197422
-1.2952909 -20.019903 7.197422
-0.72829098 -18.519903 7.197422
-0.54029101 -18.019903 7.197422
-0.293291 -17.419905 7.197422
0.384709 -15.919904 7.197422
0.54170901 -15.619904 7.197422
0.65370899 -15.419904 7.197422
0.87770897 -14.919904 7.197422
1.163709 -14.319904 7.197422
1.271709 -14.119904 7.197422
1.3807091 -13.919904 7.197422
1.641709 -13.319904 7.197422
2.0037091 -12.619904 7.197422
2.215709 -12.219904 7.197422
2.3227091 -12.019904 7.197422
2.5257089 -11.619904 7.197422
2.7857089 -11.119904 7.197422
3.385709 -9.8199043 7.197422
3.6517091 -9.1199036 7.197422
3.8457091 -8.6199036 7.197422
4.060709 -7.9199042 7.197422
4.3337088 -6.8199039 7.197422
4.6607089 -4.5199041 7.197422
4.6667089 -2.5199039 7.197422
4.633709 -2.2199039 7.197422
4.6027088 -1.7199039 7.197422
4.5377092 -1.419904 7.197422
4.508709 -0.81990403 7.197422
4.4447088 -0.41990399 7.197422
4.3577089 0.180096 7.197422
4.251709 0.78009599 7.197422
3.9207089 2.380096 7.197422
3.853709 2.7800961 7.197422
3.771709 3.080096 7.197422
3.642709 3.6800959 7.197422
3.5687089 3.9800961 7.197422
3.3147089 5.0800958 7.197422
3.156709 5.880096 7.197422
3.0857091 6.1800961 7.197422
3.0057089 6.4800959 7.197422
2.8937089 7.0800958 7.197422
2.781709 7.5800958 7.197422
2.7037089 8.0800962 7.197422
2.5987091 8.5800962 7.197422
2.5327089 8.9800959 7.197422
2.3977089 9.7800961 7.197422
2.3327091 10.180096 7.197422
2.2597089 10.580096 7.197422
2.155709 11.280096 7.197422
2.1117091 11.580096 7.197422
2.083709 11.880096 7.197422
2.027709 12.280096 7.197422
1.799709 15.680096 7.197422
1.823709 16.180096 7.197422
1.877709 16.780096 7.197422
1.691709 17.080095 7.197422
1.456709 17.180096 7.197422
1.010709 17.380096 7.197422
-3.587291 18.080095 7.197422
-3.548291 -26.919905 7.0974221
-2.985291 -26.319904 7.0974221
-2.8982911 -25.419905 7.0974221
-2.8652911 -25.119904 7.0974221
-2.7892909 -24.619904 7.0974221
-2.396291 -22.919905 7.0974221
-2.252291 -22.519903 7.0974221
-1.8102911 -21.319904 7.0974221
-1.165291 -19.719904 7.0974221
-1.023291 -19.419905 7.0974221
-0.77629101 -18.719904 7.0974221
-0.59529102 -18.219904 7.0974221
-0.34629101 -17.619904 7.0974221
-0.118291 -17.019903 7.0974221
0.037709001 -16.719904 7.0974221
0.25870901 -16.219904 7.0974221
0.764709 -15.219904 7.0974221
1.109709 -14.519904 7.0974221
1.571709 -13.519904 7.0974221
1.765709 -13.119904 7.0974221
1.928709 -12.819904 7.0974221
2.6347089 -11.419904 7.0974221
2.9837091 -10.719904 7.0974221
3.123709 -10.419904 7.0974221
3.320709 -10.019904 7.0974221
3.4837091 -9.6199036 7.0974221
3.7307091 -8.9199038 7.0974221
3.902709 -8.4199038 7.0974221
4.2027092 -7.4199042 7.0974221
4.2967091 -7.0199041 7.0974221
4.4717088 -6.119904 7.0974221
4.5447092 -5.619904 7.0974221
4.6247091 -5.0199041 7.0974221
4.652709 -4.2199039 7.0974221
4.665709 -3.8199041 7.0974221
4.6887088 -3.5199039 7.0974221
4.4187088 -0.119904 7.0974221
4.2107091 0.98009598 7.0974221
4.1567092 1.2800961 7.0974221
4.0897088 1.580096 7.0974221
3.9997089 2.080096 7.0974221
3.4597089 4.4800959 7.0974221
3.363709 4.880096 7.0974221
3.2667091 5.380096 7.0974221
3.2097089 5.6800961 7.0974221
2.9497089 6.880096 7.0974221
2.655709 8.3800964 7.0974221
2.445709 9.5800962 7.0974221
2.2307091 10.880096 7.0974221
1.938709 13.080096 7.0974221
1.892709 13.480096 7.0974221
1.861709 13.780096 7.0974221
1.844709 14.180096 7.0974221
1.820709 14.680096 7.0974221
1.811709 15.380096 7.0974221
1.855709 16.580095 7.0974221
1.912709 16.980097 7.0974221
1.343709 17.380096 7.0974221
0.66070902 17.780096 7.0974221
0.31370899 18.080095 7.0974221
-3.916291 18.180096 7.0974221
-4.2542911 18.280096 7.0974221
-3.2702911 -26.719904 6.9974222
-3.0832911 -26.519903 6.9974222
-2.9282911 -26.019903 6.9974222
-2.9022911 -25.719904 6.9974222
-2.472291 -23.219904 6.9974222
-2.321291 -22.719904 6.9974222
-2.015291 -21.919905 6.9974222
-1.919291 -21.619904 6.9974222
-1.660291 -21.019903 6.9974222
-1.503291 -20.619904 6.9974222
-1.215291 -19.919905 6.9974222
-0.95729101 -19.219904 6.9974222
-0.83629102 -18.919905 6.9974222
-0.41729099 -17.819904 6.9974222
-0.224291 -17.319904 6.9974222
0.164709 -16.519903 6.9974222
0.39070901 -16.019903 6.9974222
0.61670899 -15.519904 6.9974222
1.015709 -14.719904 6.9974222
1.484709 -13.719904 6.9974222
2.1257091 -12.419904 6.9974222
2.4467089 -11.819904 6.9974222
2.905709 -10.919904 6.9974222
3.2227089 -10.219904 6.9974222
3.5987091 -9.3199043 6.9974222
3.800709 -8.7199039 6.9974222
4.001709 -8.1199036 6.9974222
4.1177092 -7.7199039 6.9974222
4.2347088 -7.2199039 6.9974222
4.3877091 -6.5199041 6.9974222
4.5007091 -5.8199039 6.9974222
4.5697088 -5.4199042 6.9974222
4.619709 -4.8199039 6.9974222
4.665709 -3.3199041 6.9974222
4.6637092 -3.0199039 6.9974222
4.6537089 -2.7199039 6.9974222
4.6087089 -2.0199039 6.9974222
4.5387092 -1.119904 6.9974222
4.4847088 -0.61990398 6.9974222
4.3327088 0.48009601 6.9974222
3.879709 2.580096 6.9974222
3.7077091 3.380096 6.9974222
3.530709 4.1800961 6.9974222
2.8717091 7.380096 6.9974222
2.7727089 7.7800961 6.9974222
2.5757091 8.7800961 6.9974222
2.4827089 9.2800961 6.9974222
2.369709 9.9800959 6.9974222
2.303709 10.380096 6.9974222
2.0497091 12.080096 6.9974222
2.0097089 12.580096 6.9974222
1.846709 14.380096 6.9974222
1.828709 15.080096 6.9974222
1.807709 15.980096 6.9974222
1.834709 16.280096 6.9974222
1.595709 17.380096 6.9974222
1.2327091 17.580095 6.9974222
0.95070899 17.780096 6.9974222
0.52170902 18.180096 6.9974222
-3.4472909 -26.819904 6.8974218
-2.8292911 -24.919905 6.8974218
-2.752291 -24.519903 6.8974218
-2.669291 -24.119904 6.8974218
-2.6112909 -23.819904 6.8974218
-2.541291 -23.519903 6.8974218
-2.087291 -22.119904 6.8974218
-1.733291 -21.219904 6.8974218
-1.572291 -20.819904 6.8974218
-1.411291 -20.419905 6.8974218
-1.285291 -20.119904 6.8974218
-1.090291 -19.619904 6.8974218
-0.67129099 -18.519903 6.8974218
0.001709 -16.919905 6.8974218
0.51370901 -15.819904 6.8974218
0.89170903 -15.019904 6.8974218
1.230709 -14.319904 6.8974218
1.374709 -14.019904 6.8974218
1.700709 -13.319904 6.8974218
1.855709 -13.019904 6.8974218
2.004709 -12.719904 6.8974218
2.343709 -12.019904 6.8974218
2.543709 -11.619904 6.8974218
2.7097089 -11.319904 6.8974218
3.399709 -9.8199043 6.8974218
4.3157091 -6.8199039 6.8974218
4.4367089 -6.2199039 6.8974218
4.5917091 -5.119904 6.8974218
4.6747088 -3.7199039 6.8974218
4.6357088 -2.419904 6.8974218
4.5767088 -1.7199039 6.8974218
4.5637088 -1.419904 6.8974218
4.4497089 -0.319904 6.8974218
4.383709 0.080095999 6.8974218
4.2557092 0.78009599 6.8974218
4.0327091 1.880096 6.8974218
3.951709 2.2800961 6.8974218
3.7927091 3.080096 6.8974218
3.649709 3.6800959 6.8974218
3.4217091 4.6800961 6.8974218
3.317709 5.1800961 6.8974218
3.1207089 6.0800958 6.8974218
3.0397091 6.4800959 6.8974218
2.912709 7.0800958 6.8974218
2.718709 8.0800962 6.8974218
2.415709 9.6800957 6.8974218
2.271709 10.680096 6.8974218
2.182709 11.280096 6.8974218
2.1217091 11.680096 6.8974218
1.968709 12.880096 6.8974218
1.920709 13.280096 6.8974218
1.904709 17.180096 6.8974218
0.87770897 18.080095 6.8974218
-3.1482911 -26.619904 6.7974219
-2.946291 -26.219904 6.7974219
-2.8742909 -25.419905 6.7974219
-2.784291 -24.719904 6.7974219
-2.343291 -22.919905 6.7974219
-2.1902909 -22.419905 6.7974219
-1.0042911 -19.419905 6.7974219
-0.86629099 -19.119904 6.7974219
-0.57429099 -18.319904 6.7974219
-0.47229099 -18.019903 6.7974219
-0.25129101 -17.519903 6.7974219
0.102709 -16.719904 6.7974219
0.342709 -16.219904 6.7974219
0.70370901 -15.419904 6.7974219
1.127709 -14.619904 6.7974219
2.8127091 -11.119904 6.7974219
2.991709 -10.719904 6.7974219
3.132709 -10.419904 6.7974219
3.5137091 -9.5199041 6.7974219
3.708709 -9.0199041 6.7974219
3.8357091 -8.6199036 6.7974219
3.9117091 -8.3199043 6.7974219
4.0417089 -7.9199042 6.7974219
4.2677088 -7.0199041 6.7974219
4.3937092 -6.4199042 6.7974219
4.4597092 -6.0199041 6.7974219
4.566709 -5.3199039 6.7974219
4.6377091 -4.4199042 6.7974219
4.6577091 -4.0199041 6.7974219
4.6537089 -3.5199039 6.7974219
4.5257092 -0.91990399 6.7974219
4.1967092 1.080096 6.7974219
4.1517091 1.380096 6.7974219
3.850709 2.7800961 6.7974219
3.580709 3.9800961 6.7974219
3.4967091 4.380096 6.7974219
3.264709 5.4800959 6.7974219
3.1997089 5.7800961 6.7974219
2.9957089 6.7800961 6.7974219
2.6617091 8.4800959 6.7974219
2.5397091 9.0800962 6.7974219
2.3557091 10.180096 6.7974219
2.2367091 10.980096 6.7974219
2.0517089 12.380096 6.7974219
1.904709 13.580096 6.7974219
1.871709 14.080096 6.7974219
1.826709 14.880096 6.7974219
1.817709 15.380096 6.7974219
1.818709 15.780096 6.7974219
1.807709 16.180096 6.7974219
1.822709 16.480097 6.7974219
1.860709 16.780096 6.7974219
1.789709 17.480097 6.7974219
1.575709 17.680096 6.7974219
1.219709 17.980097 6.7974219
0.70470899 18.380096 6.7974219
-4.3562908 18.480097 6.7974219
-3.6152911 -26.919905 6.697422
-2.8332911 -25.119904 6.697422
-2.725291 -24.419905 6.697422
-2.4672911 -23.419905 6.697422
-1.9482909 -21.819904 6.697422
-1.837291 -21.519903 6.697422
-1.617291 -21.019903 6.697422
-1.457291 -20.619904 6.697422
-1.169291 -19.919905 6.697422
-0.76929098 -18.819904 6.697422
-0.151291 -17.319904 6.697422
0.24070901 -16.419905 6.697422
0.43270901 -16.019903 6.697422
0.82070899 -15.219904 6.697422
1.021709 -14.819904 6.697422
1.506709 -13.819904 6.697422
1.798709 -13.219904 6.697422
2.1477089 -12.519904 6.697422
2.2797091 -12.219904 6.697422
2.4317091 -11.919904 6.697422
3.297709 -10.019904 6.697422
3.6157091 -9.2199039 6.697422
4.1297088 -7.619904 6.697422
4.1947088 -7.3199039 6.697422
4.6037092 -4.8199039 6.697422
4.6447091 -2.8199041 6.697422
4.6207089 -2.2199039 6.697422
4.5957088 -1.919904 6.697422
4.5397091 -1.2199039 6.697422
4.481709 -0.51990402 6.697422
4.4177089 -0.119904 6.697422
4.3337088 0.38009599 6.697422
4.0797091 1.680096 6.697422
3.9867091 2.080096 6.697422
3.9167089 2.4800961 6.697422
3.715709 3.380096 6.697422
3.369709 4.9800959 6.697422
3.0957091 6.2800961 6.697422
2.8937089 7.2800961 6.697422
2.7997091 7.6800961 6.697422
2.5927091 8.7800961 6.697422
2.484709 9.3800964 6.697422
2.399709 9.8800964 6.697422
2.313709 10.480096 6.697422
2.1477089 11.480096 6.697422
2.086709 11.980096 6.697422
2.0267091 12.680096 6.697422
1.959709 13.080096 6.697422
1.8427089 14.580096 6.697422
-2.5722909 -23.819904 6.5974221
-2.4012909 -23.119904 6.5974221
-2.2262909 -22.619904 6.5974221
-2.087291 -22.219904 6.5974221
-1.307291 -20.319904 6.5974221
-0.638291 -18.619904 6.5974221
-0.323291 -17.719904 6.5974221
-0.076291002 -17.119904 6.5974221
0.64970899 -15.619904 6.5974221
1.293709 -14.319904 6.5974221
1.658709 -13.519904 6.5974221
1.947709 -12.919904 6.5974221
2.531709 -11.719904 6.5974221
2.6747091 -11.419904 6.5974221
2.905709 -10.919904 6.5974221
3.7407091 -8.8199043 6.5974221
3.975709 -8.1199036 6.5974221
4.3247089 -6.7199039 6.5974221
4.4067092 -6.2199039 6.5974221
4.5367088 -5.5199041 6.5974221
4.5727091 -5.119904 6.5974221
4.6287088 -4.2199039 6.5974221
4.6367092 -3.7199039 6.5974221
4.6607089 -3.3199041 6.5974221
4.5557089 -1.519904 6.5974221
4.2727089 0.68009597 6.5974221
3.780709 3.080096 6.5974221
3.6537089 3.6800959 6.5974221
3.540709 4.1800961 6.5974221
3.4637091 4.5800958 6.5974221
3.3147089 5.2800961 6.5974221
3.1667089 5.9800959 6.5974221
3.034709 6.5800958 6.5974221
2.955709 6.9800959 6.5974221
2.760709 7.9800959 6.5974221
2.705709 8.2800961 6.5974221
2.2597089 10.780096 6.5974221
1.955709 13.380096 6.5974221
1.896709 13.880096 6.5974221
1.850709 14.280096 6.5974221
1.832709 15.080096 6.5974221
1.877709 17.280096 6.5974221
1.802709 17.680096 6.5974221
1.5567091 17.880096 6.5974221
1.192709 18.180096 6.5974221
0.801709 18.580095 6.5974221
-3.8612909 -27.019903 6.4974222
-3.3972909 -26.819904 6.4974222
-3.149291 -26.619904 6.4974222
-2.968291 -26.419905 6.4974222
-2.906291 -25.819904 6.4974222
-2.8622911 -25.419905 6.4974222
-2.7602911 -24.719904 6.4974222
-2.639291 -24.119904 6.4974222
-1.739291 -21.319904 6.4974222
-1.029291 -19.619904 6.4974222
-0.87029099 -19.219904 6.4974222
-0.53429103 -18.319904 6.4974222
-0.218291 -17.519903 6.4974222
0.041708998 -16.919905 6.4974222
0.19070899 -16.619904 6.4974222
1.147709 -14.619904 6.4974222
1.453709 -14.019904 6.4974222
3.0797091 -10.519904 6.4974222
3.2197089 -10.219904 6.4974222
3.458709 -9.6199036 6.4974222
3.836709 -8.5199041 6.4974222
4.2567091 -7.0199041 6.4974222
4.4607091 -5.8199039 6.4974222
4.6157088 -4.5199041 6.4974222
4.6257091 -2.619904 6.4974222
4.5227089 -1.019904 6.4974222
4.5007091 -0.71990401 6.4974222
4.4337091 -0.319904 6.4974222
4.3877091 0.080095999 6.4974222
4.205709 1.080096 6.4974222
4.1167092 1.480096 6.4974222
4.0447092 1.880096 6.4974222
3.9597089 2.2800961 6.4974222
3.8757091 2.6800959 6.4974222
3.2427089 5.6800961 6.4974222
2.850709 7.4800959 6.4974222
2.6347089 8.5800962 6.4974222
2.5237091 9.1800957 6.4974222
2.4547091 9.6800957 6.4974222
2.3707089 10.180096 6.4974222
2.231709 11.080096 6.4974222
2.135709 11.780096 6.4974222
2.0567091 12.380096 6.4974222
1.8247091 14.780096 6.4974222
1.826709 15.780096 6.4974222
1.831709 16.180096 6.4974222
1.844709 16.480097 6.4974222
1.849709 16.980097 6.4974222
1.019709 18.480097 6.4974222
-2.9112909 -26.119904 6.3974218
-2.479291 -23.519903 6.3974218
-2.2592909 -22.819904 6.3974218
-2.1282909 -22.419905 6.3974218
-1.627291 -21.119904 6.3974218
-1.4712909 -20.719904 6.3974218
-1.123291 -19.919905 6.3974218
-0.75929099 -19.019903 6.3974218
-0.43429101 -18.119904 6.3974218
-0.097291 -17.319904 6.3974218
0.345709 -16.319904 6.3974218
0.532709 -15.919904 6.3974218
0.83170903 -15.319904 6.3974218
1.0007091 -14.919904 6.3974218
1.874709 -13.119904 6.3974218
2.1537089 -12.519904 6.3974218
2.3097091 -12.219904 6.3974218
2.462709 -11.919904 6.3974218
2.7727089 -11.219904 6.3974218
3.336709 -9.9199038 6.3974218
3.5717089 -9.3199043 6.3974218
4.112709 -7.619904 6.3974218
4.3817091 -6.4199042 6.3974218
4.567709 -4.8199039 6.3974218
4.6207089 -3.919904 6.3974218
4.6217089 -3.5199039 6.3974218
4.632709 -3.119904 6.3974218
4.5957088 -2.3199041 6.3974218
4.5757089 -1.919904 6.3974218
4.5427089 -1.319904 6.3974218
4.3287091 0.38009599 6.3974218
3.685709 3.4800961 6.3974218
3.587709 3.9800961 6.3974218
3.504709 4.380096 6.3974218
3.376709 4.9800959 6.3974218
3.122709 6.1800961 6.3974218
3.011709 6.7800961 6.3974218
2.9237089 7.1800961 6.3974218
2.800709 7.7800961 6.3974218
2.6187091 8.8800964 6.3974218
2.3327091 10.480096 6.3974218
2.1967089 11.380096 6.3974218
2.093709 12.080096 6.3974218
1.981709 13.080096 6.3974218
1.917709 13.580096 6.3974218
1.876709 14.080096 6.3974218
1.811709 15.480096 6.3974218
1.895709 17.780096 6.3974218
1.610709 18.080095 6.3974218
1.395709 18.280096 6.3974218
0.89970899 18.680096 6.3974218
-2.775291 -25.019903 6.2974219
-2.5682909 -23.919905 6.2974219
-1.873291 -21.719904 6.2974219
-1.3612911 -20.519903 6.2974219
-0.92029101 -19.419905 6.2974219
-0.64929098 -18.719904 6.2974219
-0.279291 -17.819904 6.2974219
0.68370903 -15.619904 6.2974219
1.3247091 -14.319904 6.2974219
1.555709 -13.819904 6.2974219
1.748709 -13.419904 6.2974219
2.0287089 -12.819904 6.2974219
2.6417091 -11.519904 6.2974219
3.0067091 -10.719904 6.2974219
3.6807089 -9.0199041 6.2974219
3.780709 -8.7199039 6.2974219
4.0327091 -7.9199042 6.2974219
4.165709 -7.3199039 6.2974219
4.4127092 -6.119904 6.2974219
4.5037088 -5.5199041 6.2974219
4.6097088 -4.2199039 6.2974219
4.6057091 -2.8199041 6.2974219
4.5437088 -1.619904 6.2974219
4.4607091 -0.51990402 6.2974219
4.3977089 -0.119904 6.2974219
4.2487092 0.78009599 6.2974219
4.165709 1.2800961 6.2974219
4.0687089 1.680096 6.2974219
3.9997089 2.080096 6.2974219
3.9237089 2.4800961 6.2974219
3.8197091 2.880096 6.2974219
3.7527089 3.1800959 6.2974219
3.4397089 4.6800961 6.2974219
3.2887089 5.380096 6.2974219
3.1977091 5.880096 6.2974219
3.0847089 6.4800959 6.2974219
2.714709 8.1800957 6.2974219
2.504709 9.4800959 6.2974219
2.392709 9.9800959 6.2974219
2.2597089 10.880096 6.2974219
2.031709 12.780096 6.2974219
1.848709 14.580096 6.2974219
1.833709 14.980096 6.2974219
1.844709 16.780096 6.2974219
1.877709 17.380096 6.2974219
1.197709 18.580095 6.2974219
-3.9112909 -27.219904 6.197422
-3.6572909 -27.019903 6.197422
-3.0202911 -26.519903 6.197422
-2.8742909 -25.919905 6.197422
-2.844291 -25.619904 6.197422
-2.8002911 -25.319904 6.197422
-2.6742909 -24.419905 6.197422
-2.4022911 -23.319904 6.197422
-2.308291 -23.019903 6.197422
-2.1812911 -22.619904 6.197422
-2.0172911 -22.119904 6.197422
-1.704291 -21.319904 6.197422
-1.538291 -20.919905 6.197422
-1.1932909 -20.119904 6.197422
-1.0042911 -19.719904 6.197422
-0.499291 -18.419905 6.197422
-0.144291 -17.519903 6.197422
0.146709 -16.819904 6.197422
0.28470901 -16.519903 6.197422
0.474709 -16.119904 6.197422
0.94270903 -15.119904 6.197422
1.121709 -14.719904 6.197422
2.882709 -11.019904 6.197422
3.155709 -10.319904 6.197422
3.488709 -9.5199041 6.197422
3.8647089 -8.4199038 6.197422
4.2797089 -6.7199039 6.197422
4.5557089 -5.0199041 6.197422
4.5827088 -4.619904 6.197422
4.600709 -3.7199039 6.197422
4.606709 -3.3199041 6.197422
4.600709 -2.5199039 6.197422
4.5787091 -2.119904 6.197422
4.5107088 -1.119904 6.197422
4.4837089 -0.81990403 6.197422
4.3557091 0.180096 6.197422
3.642709 3.7800961 6.197422
3.5427091 4.1800961 6.197422
2.965709 6.9800959 6.197422
2.850709 7.5800958 6.197422
2.6777091 8.4800959 6.197422
2.547709 9.1800957 6.197422
2.2277091 11.180096 6.197422
2.1247089 11.880096 6.197422
2.080709 12.380096 6.197422
1.9497091 13.380096 6.197422
1.912709 13.880096 6.197422
1.873709 14.280096 6.197422
1.839709 15.680096 6.197422
1.838709 15.980096 6.197422
1.807709 18.080095 6.197422
1.6077091 18.280096 6.197422
1.445709 18.780096 6.197422
-3.2672911 -26.819904 6.0974221
-2.702291 -24.719904 6.0974221
-2.574291 -24.119904 6.0974221
-2.492291 -23.719904 6.0974221
-0.80329102 -19.219904 6.0974221
-0.69529098 -18.919905 6.0974221
-0.31029099 -18.019903 6.0974221
0.026709 -17.119904 6.0974221
0.81770903 -15.419904 6.0974221
1.433709 -14.119904 6.0974221
1.667709 -13.619904 6.0974221
1.965709 -13.019904 6.0974221
2.570709 -11.719904 6.0974221
2.741709 -11.319904 6.0974221
3.6017089 -9.2199039 6.0974221
3.9317091 -8.1199036 6.0974221
4.073709 -7.619904 6.0974221
4.2077088 -7.0199041 6.0974221
4.4107089 -5.9199042 6.0974221
4.5947089 -4.0199041 6.0974221
4.600709 -3.0199039 6.0974221
4.5597091 -1.819904 6.0974221
4.521709 -1.419904 6.0974221
4.4107089 -0.319904 6.0974221
4.2987089 0.48009601 6.0974221
4.2007089 0.98009598 6.0974221
4.1307092 1.480096 6.0974221
4.0447092 1.880096 6.0974221
3.9597089 2.2800961 6.0974221
3.8747089 2.6800959 6.0974221
3.715709 3.380096 6.0974221
3.4727089 4.4800959 6.0974221
3.3807089 4.880096 6.0974221
3.3227091 5.1800961 6.0974221
3.2267089 5.6800961 6.0974221
3.1207089 6.1800961 6.0974221
2.918709 7.2800961 6.0974221
2.800709 7.880096 6.0974221
2.639709 8.7800961 6.0974221
2.4567089 9.6800957 6.0974221
2.379709 10.180096 6.0974221
2.2887089 10.680096 6.0974221
2.165709 11.580096 6.0974221
1.855709 14.780096 6.0974221
1.8577091 15.280096 6.0974221
1.832709 16.580095 6.0974221
1.846709 17.080095 6.0974221
1.844709 17.580095 6.0974221
-3.514291 -27.019903 5.9974222
-2.7722909 -25.119904 5.9974222
-2.222291 -22.819904 5.9974222
-2.116291 -22.419905 5.9974222
-1.822291 -21.719904 5.9974222
-1.588291 -21.119904 5.9974222
-1.362291 -20.619904 5.9974222
-1.262291 -20.319904 5.9974222
-0.92229098 -19.519903 5.9974222
-0.56529099 -18.619904 5.9974222
-0.18429101 -17.719904 5.9974222
0.42570901 -16.319904 5.9974222
1.304709 -14.419904 5.9974222
2.086709 -12.719904 5.9974222
2.3297091 -12.219904 5.9974222
3.0947089 -10.519904 5.9974222
3.326709 -9.9199038 5.9974222
3.7567091 -8.6199036 5.9974222
4.3297091 -6.4199042 5.9974222
4.4667091 -5.5199041 5.9974222
4.5417089 -4.8199039 5.9974222
4.5747089 -4.4199042 5.9974222
4.5987091 -3.5199039 5.9974222
4.6177092 -2.7199039 5.9974222
4.5847092 -2.3199041 5.9974222
4.4387088 -0.61990398 5.9974222
4.3687091 -0.019904001 5.9974222
3.781709 3.080096 5.9974222
3.5987091 3.9800961 5.9974222
3.0487089 6.4800959 5.9974222
3.0027089 6.7800961 5.9974222
2.7307091 8.1800957 5.9974222
2.5137091 9.3800964 5.9974222
2.2727089 10.980096 5.9974222
2.093709 12.180096 5.9974222
2.0327089 12.580096 5.9974222
2.034709 12.880096 5.9974222
1.9777091 13.180096 5.9974222
1.9267091 13.580096 5.9974222
1.840709 16.280096 5.9974222
1.8247091 17.880096 5.9974222
1.5007091 18.580095 5.9974222
1.611709 18.880096 5.9974222
-3.7572911 -27.219904 5.8974218
-2.906291 -26.219904 5.8974218
-2.603291 -24.319904 5.8974218
-2.341291 -23.219904 5.8974218
-1.931291 -22.019903 5.8974218
-1.701291 -21.419905 5.8974218
-1.0962909 -20.019903 5.8974218
-0.41029099 -18.319904 5.8974218
-0.019291 -17.319904 5.8974218
0.163709 -16.919905 5.8974218
0.26770899 -16.619904 5.8974218
0.59670901 -15.919904 5.8974218
0.74270898 -15.619904 5.8974218
0.90970898 -15.219904 5.8974218
1.164709 -14.719904 5.8974218
1.867709 -13.219904 5.8974218
2.508709 -11.919904 5.8974218
2.8547089 -11.119904 5.8974218
3.2237091 -10.219904 5.8974218
3.5267091 -9.4199038 5.8974218
3.656709 -9.0199041 5.8974218
3.8677089 -8.3199043 5.8974218
3.994709 -7.9199042 5.8974218
4.133709 -7.3199039 5.8974218
4.2347088 -6.8199039 5.8974218
4.3667092 -6.119904 5.8974218
4.4997091 -5.2199039 5.8974218
4.5887089 -3.8199041 5.8974218
4.5957088 -3.2199039 5.8974218
4.5587091 -2.0199039 5.8974218
4.5327091 -1.619904 5.8974218
4.5037088 -1.119904 5.8974218
4.3067088 0.28009599 5.8974218
4.2457089 0.68009597 5.8974218
4.1567092 1.180096 5.8974218
4.0717092 1.680096 5.8974218
3.984709 2.080096 5.8974218
3.892709 2.4800961 5.8974218
3.6607089 3.580096 5.8974218
3.5187089 4.2800961 5.8974218
3.4537089 4.6800961 5.8974218
3.277709 5.4800959 5.8974218
3.1717091 5.9800959 5.8974218
2.9507091 7.0800958 5.8974218
2.8647089 7.4800959 5.8974218
2.6897089 8.4800959 5.8974218
2.567709 9.0800962 5.8974218
2.4107089 9.8800964 5.8974218
2.3577089 10.380096 5.8974218
2.1997089 11.380096 5.8974218
2.149709 11.780096 5.8974218
1.906709 13.980096 5.8974218
1.876709 14.280096 5.8974218
1.8707089 14.580096 5.8974218
1.844709 15.080096 5.8974218
1.854709 15.580096 5.8974218
1.8427089 15.880096 5.8974218
1.817709 16.780096 5.8974218
1.832709 17.280096 5.8974218
1.209709 19.180096 5.8974218
-3.0432911 -26.519903 5.7974219
-2.8682909 -25.819904 5.7974219
-2.8182909 -25.419905 5.7974219
-2.439291 -23.619904 5.7974219
-2.1422911 -22.619904 5.7974219
-1.439291 -20.819904 5.7974219
-0.75629097 -19.219904 5.7974219
-0.65829098 -18.919905 5.7974219
1.424709 -14.219904 5.7974219
1.578709 -13.819904 5.7974219
1.743709 -13.519904 5.7974219
2.014709 -12.919904 5.7974219
2.2467091 -12.419904 5.7974219
2.7097089 -11.419904 5.7974219
2.9677091 -10.819904 5.7974219
4.3847089 -5.8199039 5.7974219
4.5777092 -4.2199039 5.7974219
4.600709 -2.919904 5.7974219
4.599709 -2.5199039 5.7974219
4.4607091 -0.81990403 5.7974219
4.4017091 -0.319904 5.7974219
3.8187089 2.880096 5.7974219
3.741709 3.2800961 5.7974219
3.392709 4.9800959 5.7974219
2.8027091 7.7800961 5.7974219
2.6347089 8.7800961 5.7974219
2.3147089 10.680096 5.7974219
1.959709 13.380096 5.7974219
1.835709 16.480097 5.7974219
1.815709 17.580095 5.7974219
1.779709 18.080095 5.7974219
1.650709 18.380096 5.7974219
1.677709 18.680096 5.7974219
-3.4962909 -27.119904 5.697422
-3.2492909 -26.819904 5.697422
-2.7032909 -24.819904 5.697422
-2.6342909 -24.519903 5.697422
-2.5292909 -24.019903 5.697422
-2.2732911 -23.019903 5.697422
-1.9862911 -22.219904 5.697422
-1.842291 -21.819904 5.697422
-1.605291 -21.219904 5.697422
-1.317291 -20.519903 5.697422
-1.008291 -19.819904 5.697422
-0.88029099 -19.519903 5.697422
-0.52029097 -18.619904 5.697422
-0.24529099 -17.919905 5.697422
-0.091291003 -17.519903 5.697422
0.101709 -17.119904 5.697422
0.43670899 -16.319904 5.697422
1.295709 -14.519904 5.697422
2.3987091 -12.119904 5.697422
2.5847089 -11.719904 5.697422
3.139709 -10.419904 5.697422
3.4437089 -9.6199036 5.697422
3.590709 -9.2199039 5.697422
3.8017089 -8.5199041 5.697422
3.9077089 -8.1199036 5.697422
4.0387092 -7.619904 5.697422
4.1557088 -7.119904 5.697422
4.2397089 -6.619904 5.697422
4.4437089 -5.5199041 5.697422
4.4997091 -4.9199042 5.697422
4.5287089 -4.619904 5.697422
4.593709 -3.419904 5.697422
4.488709 -1.319904 5.697422
4.3217092 0.080095999 5.697422
4.2507091 0.48009601 5.697422
4.178709 0.98009598 5.697422
4.0837088 1.480096 5.697422
4.0177088 1.880096 5.697422
3.942709 2.2800961 5.697422
3.613709 3.7800961 5.697422
3.563709 4.0800958 5.697422
3.3117089 5.2800961 5.697422
3.1977091 5.7800961 5.697422
3.1017089 6.2800961 5.697422
3.0187089 6.6800961 5.697422
2.7567091 8.0800962 5.697422
2.5187089 9.3800964 5.697422
2.475709 9.6800957 5.697422
2.4137089 10.080096 5.697422
2.2667091 10.980096 5.697422
2.1867089 11.580096 5.697422
2.1387091 11.980096 5.697422
2.076709 12.380096 5.697422
2.037709 12.780096 5.697422
1.987709 13.080096 5.697422
1.878709 14.780096 5.697422
1.861709 15.280096 5.697422
-3.7332909 -27.319904 5.5974221
-2.735291 -25.119904 5.5974221
-1.704291 -21.519903 5.5974221
-1.116291 -20.119904 5.5974221
0.229709 -16.819904 5.5974221
0.69670898 -15.819904 5.5974221
0.91170901 -15.319904 5.5974221
1.900709 -13.219904 5.5974221
2.126709 -12.719904 5.5974221
2.8747089 -11.019904 5.5974221
3.2407091 -10.119904 5.5974221
3.702709 -8.8199043 5.5974221
4.566709 -3.919904 5.5974221
4.5697088 -2.3199041 5.5974221
4.5417089 -2.0199039 5.5974221
4.5157089 -1.7199039 5.5974221
3.839709 2.6800959 5.5974221
3.767709 3.080096 5.5974221
3.6907091 3.4800961 5.5974221
3.507709 4.380096 5.5974221
3.4377091 4.6800961 5.5974221
2.955709 6.9800959 5.5974221
2.9077089 7.2800961 5.5974221
2.8527091 7.5800958 5.5974221
2.6837089 8.4800959 5.5974221
2.567709 9.0800962 5.5974221
2.3577089 10.480096 5.5974221
2.247709 11.280096 5.5974221
1.911709 13.680096 5.5974221
1.878709 14.280096 5.5974221
1.855709 15.580096 5.5974221
1.846709 15.880096 5.5974221
1.817709 16.680096 5.5974221
1.8247091 16.980097 5.5974221
1.820709 17.280096 5.5974221
1.718709 19.180096 5.5974221
-3.0492909 -26.519903 5.4974222
-2.8192911 -25.819904 5.4974222
-2.541291 -24.219904 5.4974222
-2.462291 -23.819904 5.4974222
-2.4082911 -23.519903 5.4974222
-2.3052909 -23.219904 5.4974222
-2.1282909 -22.619904 5.4974222
-1.8922909 -22.019903 5.4974222
-1.4942909 -21.019903 5.4974222
-1.380291 -20.719904 5.4974222
-0.782291 -19.319904 5.4974222
-0.66029102 -19.019903 5.4974222
-0.432291 -18.419905 5.4974222
-0.14129101 -17.719904 5.4974222
0.021709001 -17.319904 5.4974222
0.36970901 -16.519903 5.4974222
0.56670898 -16.119904 5.4974222
1.058709 -15.019904 5.4974222
1.190709 -14.719904 5.4974222
1.378709 -14.319904 5.4974222
1.5567091 -14.019904 5.4974222
1.761709 -13.519904 5.4974222
2.264709 -12.419904 5.4974222
2.487709 -11.919904 5.4974222
2.6647091 -11.519904 5.4974222
3.034709 -10.619904 5.4974222
3.3427091 -9.8199043 5.4974222
3.8417089 -8.3199043 5.4974222
4.1017089 -7.3199039 5.4974222
4.3067088 -6.2199039 5.4974222
4.3617091 -5.9199042 5.4974222
4.5327091 -4.3199039 5.4974222
4.5757089 -3.0199039 5.4974222
4.5587091 -2.619904 5.4974222
4.4587088 -1.019904 5.4974222
4.4147091 -0.51990402 5.4974222
4.3677092 -0.21990401 5.4974222
3.376709 4.9800959 5.4974222
3.2597089 5.5800958 5.4974222
2.6417091 8.7800961 5.4974222
1.950709 13.380096 5.4974222
1.9167089 13.980096 5.4974222
1.873709 14.580096 5.4974222
1.868709 14.980096 5.4974222
1.854709 16.180096 5.4974222
1.793709 17.680096 5.4974222
1.774709 17.980097 5.4974222
1.746709 18.280096 5.4974222
1.7407089 18.580095 5.4974222
1.744709 18.880096 5.4974222
1.373709 19.480097 5.4974222
0.062709004 19.580095 5.4974222
-3.6312909 -27.119904 5.3974218
-3.357291 -26.819904 5.3974218
-2.866291 -26.219904 5.3974218
-2.5922911 -24.519903 5.3974218
-2.2082911 -22.919905 5.3974218
-1.995291 -22.319904 5.3974218
-1.604291 -21.319904 5.3974218
-1.197291 -20.419905 5.3974218
-0.92129099 -19.719904 5.3974218
0.80670899 -15.619904 5.3974218
2.0097089 -13.019904 5.3974218
2.7867091 -11.219904 5.3974218
3.172709 -10.319904 5.3974218
3.626709 -9.0199041 5.3974218
3.7627089 -8.6199036 5.3974218
3.9307089 -8.0199041 5.3974218
4.0257092 -7.619904 5.3974218
4.1877089 -6.9199042 5.3974218
4.4047089 -5.5199041 5.3974218
4.4677091 -5.119904 5.3974218
4.481709 -4.8199039 5.3974218
4.5597091 -3.419904 5.3974218
4.481709 -1.419904 5.3974218
4.303709 0.080095999 5.3974218
4.2397089 0.48009601 5.3974218
4.145709 1.080096 5.3974218
4.034709 1.580096 5.3974218
3.9697089 1.980096 5.3974218
3.8817091 2.380096 5.3974218
3.5597091 3.9800961 5.3974218
3.3147089 5.2800961 5.3974218
3.156709 6.0800958 5.3974218
3.0827091 6.380096 5.3974218
2.781709 7.880096 5.3974218
2.714709 8.1800957 5.3974218
2.521709 9.3800964 5.3974218
2.475709 9.7800961 5.3974218
2.3917091 10.180096 5.3974218
2.3057089 10.980096 5.3974218
2.191709 11.580096 5.3974218
2.145709 11.980096 5.3974218
2.0757091 12.480096 5.3974218
2.0227089 12.880096 5.3974218
0.47870901 19.580095 5.3974218
-0.26029101 19.680096 5.3974218
-2.7572911 -25.419905 5.2974219
-2.491291 -24.019903 5.2974219
-1.7262909 -21.619904 5.2974219
-1.077291 -20.119904 5.2974219
-0.279291 -18.119904 5.2974219
0.139709 -17.119904 5.2974219
0.268709 -16.819904 5.2974219
0.97670901 -15.219904 5.2974219
1.654709 -13.819904 5.2974219
1.874709 -13.319904 5.2974219
2.3777089 -12.219904 5.2974219
2.906709 -10.919904 5.2974219
3.4697089 -9.4199038 5.2974219
4.257709 -6.4199042 5.2974219
4.5167089 -4.5199041 5.2974219
4.5377092 -4.0199041 5.2974219
4.5487089 -3.7199039 5.2974219
4.5117092 -2.119904 5.2974219
4.4867091 -1.7199039 5.2974219
4.1897092 0.78009599 5.2974219
3.8067091 2.7800961 5.2974219
3.7097089 3.2800961 5.2974219
3.6207089 3.6800959 5.2974219
3.471709 4.5800958 5.2974219
2.9827089 6.9800959 5.2974219
2.7037089 8.4800959 5.2974219
2.5727091 9.0800962 5.2974219
2.336709 10.580096 5.2974219
2.2337091 11.280096 5.2974219
1.896709 14.280096 5.2974219
1.861709 15.280096 5.2974219
1.818709 16.880096 5.2974219
1.7967089 19.580095 5.2974219
-3.8562911 -27.319904 5.197422
-2.7932911 -25.719904 5.197422
-2.633291 -24.819904 5.197422
-2.399291 -23.719904 5.197422
-2.0662911 -22.619904 5.197422
-1.821291 -21.919905 5.197422
-1.314291 -20.719904 5.197422
-0.71129102 -19.319904 5.197422
-0.53929102 -18.819904 5.197422
-0.356291 -18.419905 5.197422
0.030709 -17.419905 5.197422
0.50770903 -16.319904 5.197422
0.643709 -16.019903 5.197422
1.1997091 -14.819904 5.197422
1.402709 -14.419904 5.197422
1.509709 -14.119904 5.197422
2.2527089 -12.519904 5.197422
2.5257089 -11.919904 5.197422
2.692709 -11.519904 5.197422
3.0497091 -10.619904 5.197422
3.287709 -10.019904 5.197422
3.3917091 -9.7199039 5.197422
4.0757089 -7.3199039 5.197422
4.2997088 -6.119904 5.197422
4.3447089 -5.8199039 5.197422
4.5437088 -2.7199039 5.197422
4.4347091 -1.119904 5.197422
4.3877091 -0.61990398 5.197422
4.3317089 -0.21990401 5.197422
3.491709 4.2800961 5.197422
3.383709 4.880096 5.197422
3.228709 5.6800961 5.197422
3.021709 6.6800961 5.197422
2.8977089 7.380096 5.197422
2.639709 8.7800961 5.197422
1.979709 13.380096 5.197422
1.9447089 13.780096 5.197422
1.8987091 14.780096 5.197422
1.866709 15.680096 5.197422
1.848709 16.580095 5.197422
1.8297091 17.180096 5.197422
1.749709 18.380096 5.197422
1.760709 18.980097 5.197422
1.759709 19.280096 5.197422
-3.524291 -26.819904 5.0974221
-3.2472911 -26.519903 5.0974221
-2.8612909 -26.219904 5.0974221
-2.7002909 -25.219904 5.0974221
-2.544291 -24.419905 5.0974221
-2.3052909 -23.319904 5.0974221
-2.1902909 -22.919905 5.0974221
-1.551291 -21.219904 5.0974221
-0.94229102 -19.819904 5.0974221
0.40170899 -16.619904 5.0974221
0.87370902 -15.519904 5.0974221
2.119709 -12.819904 5.0974221
3.7957089 -8.4199038 5.0974221
3.9997089 -7.619904 5.0974221
4.1517091 -6.9199042 5.0974221
4.4647088 -4.8199039 5.0974221
4.5107088 -4.3199039 5.0974221
4.547709 -3.2199039 5.0974221
4.521709 -2.419904 5.0974221
4.2467089 0.38009599 5.0974221
4.0587091 1.480096 5.0974221
3.9337089 2.080096 5.0974221
3.846709 2.4800961 5.0974221
3.320709 5.1800961 5.0974221
3.139709 5.9800959 5.0974221
2.849709 7.6800961 5.0974221
2.780709 8.0800962 5.0974221
2.510709 9.4800959 5.0974221
2.438709 9.8800964 5.0974221
2.366709 10.280096 5.0974221
2.283709 10.880096 5.0974221
2.175709 11.680096 5.0974221
2.116709 12.080096 5.0974221
2.0197091 12.980096 5.0974221
1.881709 16.080095 5.0974221
1.788709 17.680096 5.0974221
1.7637089 18.080095 5.0974221
1.461709 19.780096 5.0974221
0.14470901 19.880096 5.0974221
-0.328291 19.980097 5.0974221
-2.4502909 -24.019903 4.9974222
-1.084291 -20.219904 4.9974222
-0.20829099 -18.119904 4.9974222
-0.095291004 -17.819904 4.9974222
0.235709 -17.019903 4.9974222
1.086709 -15.119904 4.9974222
1.761709 -13.619904 4.9974222
1.932709 -13.219904 4.9974222
2.889709 -11.019904 4.9974222
3.1707089 -10.319904 4.9974222
3.7067089 -8.7199039 4.9974222
4.2407088 -6.4199042 4.9974222
4.4207091 -5.3199039 4.9974222
4.4997091 -3.919904 4.9974222
4.4847088 -1.919904 4.9974222
4.4327092 -1.419904 4.9974222
4.1517091 0.88009602 4.9974222
3.7237091 3.1800959 4.9974222
3.6437089 3.580096 4.9974222
3.5587089 3.9800961 4.9974222
3.063709 6.380096 4.9974222
2.7177091 8.3800964 4.9974222
2.2507091 11.180096 4.9974222
1.8707089 15.380096 4.9974222
0.495709 19.880096 4.9974222
-1.054291 20.180096 4.9974222
-3.7592909 -27.019903 4.8974218
-2.725291 -25.519903 4.8974218
-1.932291 -22.219904 4.8974218
-1.419291 -21.019903 4.8974218
-0.72729099 -19.419905 4.8974218
-0.61629099 -19.119904 4.8974218
-0.397291 -18.619904 4.8974218
0.047708999 -17.519903 4.8974218
0.75870901 -15.819904 4.8974218
1.368709 -14.519904 4.8974218
1.639709 -13.919904 4.8974218
2.346709 -12.319904 4.8974218
2.5647089 -11.819904 4.8974218
2.7197089 -11.419904 4.8974218
3.408709 -9.6199036 4.8974218
3.6047089 -9.0199041 4.8974218
3.8687091 -8.1199036 4.8974218
4.0507088 -7.3199039 4.8974218
4.2937088 -6.0199041 4.8974218
4.514709 -2.8199041 4.8974218
4.3737092 -0.91990399 4.8974218
4.3487091 -0.51990402 4.8974218
4.2657089 0.080095999 4.8974218
3.9777091 1.7800961 4.8974218
3.7857089 2.7800961 4.8974218
3.4337089 4.5800958 4.8974218
3.2427089 5.4800959 4.8974218
2.9737091 6.880096 4.8974218
2.899709 7.2800961 4.8974218
2.629709 8.8800964 4.8974218
2.3427091 10.580096 4.8974218
2.0647089 12.680096 4.8974218
1.9677089 13.480096 4.8974218
1.933709 13.980096 4.8974218
1.904709 14.680096 4.8974218
1.879709 15.780096 4.8974218
1.759709 18.480097 4.8974218
1.771709 18.880096 4.8974218
1.7917089 19.380096 4.8974218
1.762709 19.880096 4.8974218
-0.49129099 20.180096 4.8974218
-3.4802909 -26.619904 4.7974219
-2.7242911 -25.819904 4.7974219
-2.591291 -24.819904 4.7974219
-2.291291 -23.519903 4.7974219
-2.179291 -23.019903 4.7974219
-1.707291 -21.719904 4.7974219
-1.579291 -21.419905 4.7974219
-1.292291 -20.719904 4.7974219
-0.93229097 -19.919905 4.7974219
0.518709 -16.419905 4.7974219
0.94670898 -15.419904 4.7974219
1.225709 -14.819904 4.7974219
1.491709 -14.219904 4.7974219
2.2197089 -12.619904 4.7974219
3.001709 -10.719904 4.7974219
3.5167091 -9.3199043 4.7974219
3.951709 -7.7199039 4.7974219
4.1717091 -6.7199039 4.7974219
4.3427091 -5.619904 4.7974219
4.4187088 -4.9199042 4.7974219
4.5057092 -3.5199039 4.7974219
4.4907088 -2.2199039 4.7974219
4.1807089 0.58009601 4.7974219
4.0757089 1.180096 4.7974219
3.8747089 2.2800961 4.7974219
3.3707089 4.9800959 4.7974219
2.7857089 7.880096 4.7974219
2.557709 9.2800961 4.7974219
2.231709 11.480096 4.7974219
2.156709 11.880096 4.7974219
2.0977089 12.280096 4.7974219
1.8887089 15.080096 4.7974219
1.843709 16.680096 4.7974219
1.821709 17.180096 4.7974219
0.85970902 19.980097 4.7974219
-4.0492911 -27.319904 4.697422
-2.9302909 -26.119904 4.697422
-2.492291 -24.319904 4.697422
-2.3882909 -23.819904 4.697422
-2.008291 -22.519903 4.697422
-0.097291 -17.919905 4.697422
0.19070899 -17.219904 4.697422
0.40170899 -16.719904 4.697422
2.0417089 -13.019904 4.697422
3.754709 -8.4199038 4.697422
4.099709 -7.0199041 4.697422
4.4607091 -4.5199041 4.697422
4.4447088 -1.7199039 4.697422
4.3937092 -1.2199039 4.697422
4.2897091 -0.21990401 4.697422
3.658709 3.380096 4.697422
3.5797091 3.7800961 4.697422
3.5137091 4.1800961 4.697422
3.1937089 5.7800961 4.697422
3.1077089 6.1800961 4.697422
3.0297091 6.5800958 4.697422
2.6847091 8.5800962 4.697422
2.468709 9.8800964 4.697422
2.3877089 10.280096 4.697422
2.2867091 10.980096 4.697422
2.030709 13.080096 4.697422
1.940709 14.380096 4.697422
1.871709 16.280096 4.697422
1.805709 17.880096 4.697422
0.106709 20.180096 4.697422
-0.84329098 20.480097 4.697422
-1.837291 -22.119904 4.5974221
-1.136291 -20.419905 4.5974221
-0.80229098 -19.619904 4.5974221
-0.45229101 -18.819904 4.5974221
0.72170901 -16.019903 4.5974221
1.113709 -15.119904 4.5974221
1.876709 -13.419904 4.5974221
2.478709 -12.019904 4.5974221
2.6417091 -11.619904 4.5974221
2.8477089 -11.119904 4.5974221
3.188709 -10.219904 4.5974221
3.6077089 -8.9199038 4.5974221
4.376709 -5.2199039 4.5974221
4.4847088 -3.0199039 4.5974221
4.487709 -2.619904 4.5974221
4.1937089 0.28009599 4.5974221
4.1107092 0.88009602 4.5974221
4.001709 1.580096 4.5974221
3.925709 1.980096 4.5974221
3.8067091 2.580096 4.5974221
3.724709 2.9800961 4.5974221
3.2957089 5.2800961 4.5974221
2.8477089 7.5800958 4.5974221
2.7537091 8.1800957 4.5974221
1.956709 13.680096 4.5974221
1.760709 18.280096 4.5974221
1.757709 18.680096 4.5974221
1.789709 19.080095 4.5974221
1.823709 19.980097 4.5974221
-2.663291 -25.319904 4.4974222
-2.242291 -23.319904 4.4974222
-1.637291 -21.619904 4.4974222
-1.445291 -21.119904 4.4974222
-0.61129099 -19.219904 4.4974222
-0.21429101 -18.219904 4.4974222
0.023708999 -17.619904 4.4974222
1.373709 -14.519904 4.4974222
1.599709 -14.019904 4.4974222
3.021709 -10.619904 4.4974222
3.317709 -9.8199043 4.4974222
4.1957092 -6.3199039 4.4974222
4.2657089 -5.9199042 4.4974222
4.4597092 -3.919904 4.4974222
4.4497089 -2.0199039 4.4974222
4.3337088 -0.71990401 4.4974222
3.4217091 4.6800961 4.4974222
2.961709 6.9800959 4.4974222
2.6207089 8.9800959 4.4974222
2.5397091 9.4800959 4.4974222
2.3447089 10.580096 4.4974222
2.2557089 11.280096 4.4974222
2.188709 11.680096 4.4974222
2.1317091 12.080096 4.4974222
2.073709 12.480096 4.4974222
1.9547091 14.080096 4.4974222
1.894709 15.880096 4.4974222
1.856709 16.880096 4.4974222
0.57370901 20.280096 4.4974222
-0.169291 20.480097 4.4974222
-0.66029102 20.780096 4.4974222
-4.2202911 -27.219904 4.3974218
-3.591291 -26.619904 4.3974218
-3.2722909 -26.219904 4.3974218
-2.535291 -24.619904 4.3974218
-2.4182911 -24.119904 4.3974218
-2.320291 -23.719904 4.3974218
-1.229291 -20.719904 4.3974218
-0.88229102 -19.919905 4.3974218
0.340709 -16.919905 4.3974218
0.51570898 -16.519903 4.3974218
0.85370898 -15.719904 4.3974218
2.1437089 -12.819904 4.3974218
2.3097091 -12.419904 4.3974218
3.5137091 -9.2199039 4.3974218
4.376709 -4.9199042 4.3974218
4.4007092 -1.519904 4.3974218
4.0187092 1.2800961 4.3974218
3.616709 3.580096 4.3974218
3.5327089 3.9800961 4.3974218
3.2167089 5.5800958 4.3974218
3.145709 5.9800959 4.3974218
3.076709 6.380096 4.3974218
2.783709 7.880096 4.3974218
2.429709 10.080096 4.3974218
2.047709 12.880096 4.3974218
2.0237091 13.280096 4.3974218
1.929709 14.580096 4.3974218
1.937709 14.980096 4.3974218
1.917709 15.480096 4.3974218
1.810709 19.380096 4.3974218
-3.9012909 -27.019903 4.2974219
-2.7242911 -25.819904 4.2974219
-2.1422911 -23.019903 4.2974219
-1.916291 -22.319904 4.2974219
-0.335291 -18.619904 4.2974219
0.176709 -17.319904 4.2974219
1.054709 -15.319904 4.2974219
1.281709 -14.819904 4.2974219
1.804709 -13.619904 4.2974219
3.856709 -8.0199041 4.2974219
3.968709 -7.5199041 4.2974219
4.047709 -7.119904 4.2974219
4.1167092 -6.7199039 4.2974219
4.3227091 -5.4199042 4.2974219
4.4067092 -4.3199039 4.2974219
4.4477091 -3.619904 4.2974219
4.4387088 -3.2199039 4.2974219
4.4437089 -2.8199041 4.2974219
4.4347091 -2.419904 4.2974219
4.3517089 -1.119904 4.2974219
4.2357092 -0.119904 4.2974219
4.1167092 0.58009601 4.2974219
3.928709 1.7800961 4.2974219
3.8457091 2.1800959 4.2974219
3.659709 3.1800959 4.2974219
3.339709 4.9800959 4.2974219
2.8807089 7.380096 4.2974219
2.7097089 8.3800964 4.2974219
1.879709 16.280096 4.2974219
1.8427089 17.380096 4.2974219
1.809709 17.880096 4.2974219
1.794709 18.880096 4.2974219
1.214709 20.380096 4.2974219
0.172709 20.480097 4.2974219
-2.5852909 -25.119904 4.197422
-1.720291 -21.919905 4.197422
-1.479291 -21.319904 4.197422
-0.99629098 -20.219904 4.197422
-0.48929101 -19.019903 4.197422
-0.063290998 -17.919905 4.197422
0.74270898 -16.019903 4.197422
1.4957089 -14.319904 4.197422
2.5137091 -11.919904 4.197422
2.7077091 -11.419904 4.197422
2.9347091 -10.819904 4.197422
3.1207089 -10.319904 4.197422
3.406709 -9.5199041 4.197422
3.5927091 -8.9199038 4.197422
3.7297089 -8.4199038 4.197422
3.7367091 2.7800961 4.197422
3.455709 4.380096 4.197422
2.304709 10.980096 4.197422
1.981709 13.780096 4.197422
1.8297091 19.780096 4.197422
1.838709 20.280096 4.197422
-2.627291 -25.519903 4.0974221
-2.429291 -24.319904 4.0974221
-0.703291 -19.519903 4.0974221
1.927709 -13.319904 4.0974221
4.152709 -6.3199039 4.0974221
4.224709 -5.9199042 4.0974221
4.3607092 -4.7199039 4.0974221
4.3707089 -1.819904 4.0974221
4.2617092 -0.61990398 4.0974221
4.0387092 0.98009598 4.0974221
2.994709 6.7800961 4.0974221
2.6157091 8.8800964 4.0974221
2.520709 9.3800964 4.0974221
2.4567089 9.7800961 4.0974221
2.3487091 10.580096 4.0974221
2.2137091 11.580096 4.0974221
2.149709 12.080096 4.0974221
2.1047089 12.580096 4.0974221
1.959709 14.280096 4.0974221
1.925709 15.180096 4.0974221
1.9037091 15.780096 4.0974221
1.835709 16.980097 4.0974221
1.8017091 18.280096 4.0974221
-0.043290999 20.880096 4.0974221
-4.466291 -27.319904 3.997422
-3.7342911 -26.719904 3.997422
-1.933291 -22.519903 3.997422
0.349709 -17.019903 3.997422
2.3157091 -12.419904 3.997422
3.2227089 -10.019904 3.997422
3.964709 -7.3199039 3.997422
4.4127092 -3.919904 3.997422
4.317709 -1.419904 3.997422
4.119709 0.28009599 3.997422
3.9577091 1.380096 3.997422
3.5757091 3.6800959 3.997422
3.2427089 5.2800961 3.997422
3.1507089 5.7800961 3.997422
3.0457089 6.380096 3.997422
2.7757089 7.9800959 3.997422
2.4017091 10.180096 3.997422
2.0757091 12.980096 3.997422
2.0327089 13.380096 3.997422
1.955709 14.680096 3.997422
1.882709 16.580095 3.997422
1.8017091 17.580095 3.997422
1.828709 19.380096 3.997422
1.861709 20.580095 3.997422
0.49670899 20.680096 3.997422
-3.2802911 -26.119904 3.8974221
-2.307291 -23.819904 3.8974221
-2.1472909 -23.219904 3.8974221
-0.240291 -18.519903 3.8974221
0.13170899 -17.519903 3.8974221
0.89570898 -15.719904 3.8974221
1.311709 -14.719904 3.8974221
2.1387091 -12.819904 3.8974221
2.8217089 -11.119904 3.8974221
3.8677089 -7.7199039 3.8974221
4.376709 -4.3199039 3.8974221
4.4107089 -3.119904 3.8974221
4.3737092 -2.2199039 3.8974221
4.179709 -0.21990401 3.8974221
3.8817091 1.880096 3.8974221
3.7867091 2.380096 3.8974221
3.685709 3.080096 3.8974221
3.5057089 4.0800958 3.8974221
3.366709 4.7800961 3.8974221
2.895709 7.380096 3.8974221
2.728709 8.3800964 3.8974221
1.818709 18.880096 3.8974221
-4.0872908 -27.019903 3.7974219
-2.8942909 -25.719904 3.7974219
-2.557291 -25.319904 3.7974219
-2.5062909 -24.919905 3.7974219
-1.7672909 -22.119904 3.7974219
-0.85029101 -19.919905 3.7974219
-0.46129099 -19.019903 3.7974219
-0.097291 -18.119904 3.7974219
0.65470898 -16.319904 3.7974219
1.599709 -14.119904 3.7974219
2.672709 -11.519904 3.7974219
3.0067091 -10.619904 3.7974219
3.4377091 -9.3199043 3.7974219
3.7327089 -8.2199039 3.7974219
4.0247092 -6.8199039 3.7974219
4.2827091 -5.3199039 3.7974219
4.395709 -2.619904 3.7974219
4.251709 -0.91990399 3.7974219
4.0457091 0.68009597 3.7974219
2.297709 10.980096 3.7974219
1.9957089 13.880096 3.7974219
1.9497091 15.480096 3.7974219
1.798709 18.480097 3.7974219
1.853709 19.880096 3.7974219
-1.597291 -21.719904 3.697422
-1.3562911 -21.119904 3.697422
-1.200291 -20.719904 3.697422
-1.010291 -20.319904 3.697422
-0.666291 -19.519903 3.697422
0.48070899 -16.719904 3.697422
1.142709 -15.219904 3.697422
1.757709 -13.719904 3.697422
1.933709 -13.319904 3.697422
2.501709 -11.919904 3.697422
3.2927091 -9.7199039 3.697422
3.619709 -8.6199036 3.697422
4.0857091 -6.4199042 3.697422
4.1807089 -5.8199039 3.697422
4.3097091 -4.7199039 3.697422
4.376709 -3.5199039 3.697422
4.3157091 -1.7199039 3.697422
3.103709 6.0800958 3.697422
2.987709 6.6800961 3.697422
2.622709 8.9800959 3.697422
2.478709 9.8800964 3.697422
2.3847089 10.480096 3.697422
2.2007091 11.680096 3.697422
2.100709 12.480096 3.697422
1.929709 16.080095 3.697422
-3.5922911 -26.419905 3.5974219
-2.334291 -24.119904 3.5974219
-1.917291 -22.619904 3.5974219
0.29770899 -17.219904 3.5974219
3.905709 -7.4199042 3.5974219
4.3397088 -4.0199041 3.5974219
4.1237092 0.080095999 3.5974219
3.9667089 1.180096 3.5974219
3.712709 2.6800959 3.5974219
3.5987091 3.380096 3.5974219
3.4167089 4.380096 3.5974219
3.2897091 5.0800958 3.5974219
3.1897089 5.5800958 3.5974219
2.803709 7.7800961 3.5974219
2.0847089 12.980096 3.5974219
2.0457089 13.480096 3.5974219
1.962709 14.580096 3.5974219
1.968709 15.080096 3.5974219
1.884709 16.880096 3.5974219
1.848709 17.880096 3.5974219
1.856709 19.480097 3.5974219
1.868709 20.380096 3.5974219
-2.4142909 -24.519903 3.497422
0.86670899 -15.919904 3.497422
1.441709 -14.519904 3.497422
2.3477089 -12.319904 3.497422
2.8847089 -10.919904 3.497422
3.7757089 -7.9199042 3.497422
4.343709 -2.919904 3.497422
4.179709 -0.51990402 3.497422
3.8707089 1.680096 3.497422
3.787709 2.1800959 3.497422
3.4997089 3.880096 3.497422
2.896709 7.1800961 3.497422
2.662709 8.5800962 3.497422
2.5037091 9.4800959 3.497422
2.175709 12.080096 3.497422
1.838709 17.380096 3.497422
0.60070902 21.080095 3.497422
