# .PCD v0.7 - Point Cloud Data file format
VERSION 0.7
FIELDS x y z
SIZE 4 4 4
TYPE F F F
COUNT 1 1 1
WIDTH 1577
HEIGHT 1
VIEWPOINT 0 0 0 1 0 0 0
POINTS 1577
DATA ascii
3.6800959 4.3974218 3.5857091
4.6800961 4.3974218 3.409709
5.380096 4.3974218 3.267709
6.2800961 4.3974218 3.096709
6.6800961 4.3974218 2.991709
7.1800961 4.3974218 2.915709
11.080096 4.3974218 2.280709
13.380096 4.3974218 2.0127089
13.880096 4.3974218 1.961709
-24.619904 4.2974219 -2.5042911
-22.919905 4.2974219 -2.103291
-22.519903 4.2974219 -1.954291
-21.619904 4.2974219 -1.632291
-11.419904 4.2974219 2.7277091
-10.719904 4.2974219 3.001709
-8.2199039 4.2974219 3.7867091
-7.619904 4.2974219 3.9477091
-7.3199039 4.2974219 4.0027089
-6.9199042 4.2974219 4.0747089
-2.2199039 4.2974219 4.4177089
-1.919904 4.2974219 4.4107089
0.58009601 4.2974219 4.1167092
2.4800961 4.2974219 3.7957089
2.7800961 4.2974219 3.735709
5.0800958 4.2974219 3.316709
5.9800959 4.2974219 3.1547091
7.9800959 4.2974219 2.7917089
12.180096 4.2974219 2.1257091
20.380096 4.2974219 1.214709
-25.819904 4.197422 -2.778291
-25.119904 4.197422 -2.5852909
-22.119904 4.197422 -1.822291
-20.919905 4.197422 -1.3182909
-18.919905 4.197422 -0.45629099
-14.219904 4.197422 1.557709
-13.619904 4.197422 1.817709
-10.319904 4.197422 3.1207089
-9.8199043 4.197422 3.2927091
-9.2199039 4.197422 3.5007091
-7.9199042 4.197422 3.850709
-6.619904 4.197422 4.1227088
-6.119904 4.197422 4.212709
-5.619904 4.197422 4.2827091
-3.3199041 4.197422 4.4347091
-2.7199039 4.197422 4.422709
-1.619904 4.197422 4.3617091
-1.019904 4.197422 4.3057089
-0.51990402 4.197422 4.2557092
0.98009598 4.197422 4.0467091
1.680096 4.197422 3.9367089
1.980096 4.197422 3.8807089
4.1800961 4.197422 3.487709
5.6800961 4.197422 3.1867089
8.8800964 4.197422 2.6207089
9.2800961 4.197422 2.5527091
9.8800964 4.197422 2.452709
10.580096 4.197422 2.3487091
16.780096 4.197422 1.861709
19.380096 4.197422 1.818709
20.580095 4.197422 0.23370899
-27.319904 4.0974221 -4.544291
-27.119904 4.0974221 -4.0962911
-26.819904 4.0974221 -3.791291
-26.619904 4.0974221 -3.620291
-26.319904 4.0974221 -3.3712909
-23.919905 4.0974221 -2.3362911
-23.519903 4.0974221 -2.2402911
-9.5199041 4.0974221 3.3787091
-5.3199039 4.0974221 4.3097091
-4.8199039 4.0974221 4.3457088
-3.0199039 4.0974221 4.4237089
-1.319904 4.0974221 4.323709
0.38009599 4.0974221 4.133709
1.380096 4.0974221 3.9707091
3.2800961 4.0974221 3.645709
3.880096 4.0974221 3.540709
4.7800961 4.0974221 3.3677089
6.380096 4.0974221 3.050709
6.880096 4.0974221 2.971709
8.4800959 4.0974221 2.7007091
12.680096 4.0974221 2.089709
16.180096 4.0974221 1.874709
17.680096 4.0974221 1.798709
-25.919905 3.997422 -3.0782909
-15.119904 3.997422 1.174709
-12.919904 3.997422 2.122709
-12.319904 3.997422 2.3657091
-11.919904 3.997422 2.537709
-10.919904 3.997422 2.918709
-8.3199043 3.997422 3.7407091
-4.5199041 3.997422 4.382709
-4.0199041 3.997422 4.4047089
-3.619904 3.997422 4.4207091
-2.0199039 3.997422 4.3597088
-0.319904 3.997422 4.2017088
-0.019904001 3.997422 4.1607089
0.78009599 3.997422 4.0587091
2.2800961 3.997422 3.8147089
2.6800959 3.997422 3.748709
4.380096 3.997422 3.4397089
14.580096 3.997422 1.9497091
18.680096 3.997422 1.788709
-27.219904 3.8974221 -4.3492908
-26.119904 3.8974221 -3.2802911
-25.619904 3.8974221 -2.656291
-24.319904 3.8974221 -2.393291
-22.719904 3.8974221 -1.988291
-21.219904 3.8974221 -1.417291
-20.519903 3.8974221 -1.118291
-11.219904 3.8974221 2.783709
-10.119904 3.8974221 3.195709
-8.7199039 3.8974221 3.596709
-7.5199041 3.8974221 3.9137089
-7.0199041 3.8974221 4.008709
-5.8199039 3.8974221 4.2097092
-5.0199041 3.8974221 4.3137088
-3.3199041 3.8974221 4.395709
-2.419904 3.8974221 4.3757091
-1.619904 3.8974221 4.323709
-0.71990401 3.8974221 4.2347088
1.680096 3.8974221 3.9167089
2.9800961 3.8974221 3.6877091
3.580096 3.8974221 3.5857091
4.0800958 3.8974221 3.5057089
5.0800958 3.8974221 3.2997091
5.380096 3.8974221 3.2337091
5.7800961 3.8974221 3.1607089
7.4800959 3.8974221 2.873709
9.5800962 3.8974221 2.5127089
10.980096 3.8974221 2.304709
11.680096 3.8974221 2.1937089
13.580096 3.8974221 2.027709
-27.019903 3.7974219 -4.0872908
-26.819904 3.7974219 -3.877291
-26.619904 3.7974219 -3.7042911
-26.419905 3.7974219 -3.5162909
-24.719904 3.7974219 -2.459291
-23.219904 3.7974219 -2.127291
-19.919905 3.7974219 -0.85029101
-18.119904 3.7974219 -0.097291
-13.319904 3.7974219 1.9317091
-10.419904 3.7974219 3.077709
-9.7199039 3.7974219 3.3317089
-9.1199036 3.7974219 3.4867091
-8.0199041 3.7974219 3.7737091
-6.619904 3.7974219 4.0557089
-6.3199039 3.7974219 4.1237092
-3.8199041 3.7974219 4.3657088
-1.2199039 3.7974219 4.2637091
0.28009599 3.7974219 4.0957088
0.58009601 3.7974219 4.0627089
1.180096 3.7974219 3.975709
2.4800961 3.7974219 3.770709
3.2800961 3.7974219 3.6377089
4.7800961 3.7974219 3.3487091
6.1800961 3.7974219 3.077709
6.6800961 3.7974219 2.9937091
7.9800959 3.7974219 2.774709
8.7800961 3.7974219 2.642709
12.180096 3.7974219 2.139709
13.080096 3.7974219 2.070709
14.080096 3.7974219 1.978709
15.080096 3.7974219 1.9447089
19.780096 3.7974219 1.860709
-25.919905 3.697422 -3.143291
-25.219904 3.697422 -2.547291
-23.919905 3.697422 -2.291291
-22.419905 3.697422 -1.864291
-15.719904 3.697422 0.93970901
-8.3199043 3.697422 3.6807089
-7.7199039 3.697422 3.826709
-6.0199041 3.697422 4.1507092
-5.4199042 3.697422 4.2507091
-4.5199041 3.697422 4.323709
-4.119904 3.697422 4.337709
-2.919904 3.697422 4.3727088
-2.619904 3.697422 4.3617091
-2.119904 3.697422 4.3397088
1.480096 3.697422 3.9167089
2.080096 3.697422 3.8247089
3.7800961 3.697422 3.537709
4.4800959 3.697422 3.402709
9.1800957 3.697422 2.5747089
10.080096 3.697422 2.435709
15.780096 3.697422 1.951709
17.180096 3.697422 1.856709
-27.219904 3.5974219 -4.4092908
-20.919905 3.5974219 -1.273291
-12.619904 3.5974219 2.237709
-10.719904 3.5974219 2.9547091
-7.0199041 3.5974219 3.9707091
-5.0199041 3.5974219 4.2817092
-3.5199039 3.5974219 4.3467088
-3.2199039 3.5974219 4.3447089
-1.819904 3.5974219 4.3017092
-1.419904 3.5974219 4.271709
-1.019904 3.5974219 4.2467089
-0.119904 3.5974219 4.1447091
0.88009602 3.5974219 4.0067091
2.880096 3.5974219 3.6777091
4.1800961 3.5974219 3.4477091
7.6800961 3.5974219 2.813709
8.4800959 3.5974219 2.672709
10.580096 3.5974219 2.3577089
18.280096 3.5974219 1.8247091
19.080095 3.5974219 1.8427089
-24.419905 3.497422 -2.393291
-21.919905 3.497422 -1.656291
-21.519903 3.497422 -1.4862911
-11.719904 3.497422 2.5987091
-10.019904 3.497422 3.1897089
-9.3199043 3.497422 3.399709
-8.1199036 3.497422 3.7177091
-7.3199039 3.497422 3.912709
-5.8199039 3.497422 4.1767092
-4.3199039 3.497422 4.303709
-2.3199041 3.497422 4.3277092
-0.71990401 3.497422 4.191709
-0.41990399 3.497422 4.1607089
0.38009599 3.497422 4.0557089
1.180096 3.497422 3.9467089
3.580096 3.497422 3.560709
4.6800961 3.497422 3.349709
4.9800959 3.497422 3.3067091
5.380096 3.497422 3.2327089
5.880096 3.497422 3.1447091
6.4800959 3.497422 3.0227089
7.0800958 3.497422 2.9167089
9.4800959 3.497422 2.5037091
11.480096 3.497422 2.228709
20.480097 3.497422 1.859709
-27.319904 3.3974221 -4.6522908
-27.119904 3.3974221 -4.3702912
-26.819904 3.3974221 -4.0012908
-26.519903 3.3974221 -3.7362909
-26.119904 3.3974221 -3.3822911
-25.819904 3.3974221 -3.107291
-24.919905 3.3974221 -2.4872911
-23.219904 3.3974221 -2.093291
-22.819904 3.3974221 -1.982291
-14.619904 3.3974221 1.425709
-12.219904 3.3974221 2.3937089
-11.019904 3.3974221 2.8587091
-10.419904 3.3974221 3.057709
-9.7199039 3.3974221 3.2697091
-8.8199043 3.3974221 3.527709
-8.4199038 3.3974221 3.6407089
-7.8199039 3.3974221 3.7827089
-6.7199039 3.3974221 4.0117092
-6.2199039 3.3974221 4.0967088
-5.4199042 3.3974221 4.2077088
-4.619904 3.3974221 4.2597089
-3.7199039 3.3974221 4.3057089
-3.0199039 3.3974221 4.3217092
-2.7199039 3.3974221 4.3127089
-2.0199039 3.3974221 4.2877092
-1.2199039 3.3974221 4.224709
0.080095999 3.3974221 4.0947089
1.480096 3.3974221 3.8877089
1.7800961 3.3974221 3.836709
2.6800959 3.3974221 3.712709
3.2800961 3.3974221 3.5977089
8.0800962 3.3974221 2.7457089
11.080096 3.3974221 2.281709
12.580096 3.3974221 2.1247089
14.580096 3.3974221 1.9727089
-26.319904 3.2974219 -3.564291
-25.519903 3.2974219 -2.8692911
-25.319904 3.2974219 -2.535291
-23.519903 3.2974219 -2.1912911
-19.419905 3.2974219 -0.587291
-13.419904 3.2974219 1.920709
-4.9199042 3.2974219 4.2287092
-4.119904 3.2974219 4.2727089
-1.7199039 3.2974219 4.2497091
-0.91990399 3.2974219 4.1997089
-0.21990401 3.2974219 4.1247091
0.78009599 3.2974219 3.9867091
2.2800961 3.2974219 3.7467091
2.9800961 3.2974219 3.6347089
3.7800961 3.2974219 3.511709
4.0800958 3.2974219 3.458709
4.380096 3.2974219 3.402709
10.080096 3.2974219 2.4347091
13.080096 3.2974219 2.086709
13.580096 3.2974219 2.0327089
16.580095 3.2974219 1.889709
21.280096 3.2974219 1.864709
-20.519903 3.197422 -1.057291
-14.019904 3.197422 1.673709
-12.819904 3.197422 2.132709
-11.419904 3.197422 2.6877091
-8.0199041 3.197422 3.7307091
-7.4199042 3.197422 3.8487091
-7.0199041 3.197422 3.9237089
-5.8199039 3.197422 4.1307092
-5.2199039 3.197422 4.2007089
-1.419904 3.197422 4.2137089
-0.51990402 3.197422 4.1367092
1.180096 3.197422 3.9077089
5.380096 3.197422 3.2107091
5.6800961 3.197422 3.1577089
6.1800961 3.197422 3.0657091
8.4800959 3.197422 2.6707089
19.680096 3.197422 1.8937089
-27.019903 3.0974219 -4.3482909
-26.719904 3.0974219 -3.995291
-26.519903 3.0974219 -3.824291
-25.919905 3.0974219 -3.3022909
-24.119904 3.0974219 -2.287291
-21.719904 3.0974219 -1.546291
-11.919904 3.0974219 2.4897089
-10.019904 3.0974219 3.165709
-9.4199038 3.0974219 3.349709
-8.3199043 3.0974219 3.635709
-6.5199041 3.0974219 3.9957089
-5.5199041 3.0974219 4.1287088
-4.5199041 3.0974219 4.237709
-3.919904 3.0974219 4.2487092
-3.619904 3.0974219 4.2637091
-3.3199041 3.0974219 4.2767091
-2.5199039 3.0974219 4.2767091
-2.2199039 3.0974219 4.2617092
0.48009601 3.0974219 3.9957089
1.680096 3.0974219 3.8317089
2.7800961 3.0974219 3.6577089
3.1800959 3.0974219 3.5917089
3.4800961 3.0974219 3.5467091
4.9800959 3.0974219 3.2787089
6.7800961 3.0974219 2.962709
7.1800961 3.0974219 2.882709
7.6800961 3.0974219 2.7957089
8.9800959 3.0974219 2.600709
9.6800957 3.0974219 2.5037091
10.780096 3.0974219 2.3327091
14.180096 3.0974219 1.979709
15.080096 3.0974219 2.0037091
15.880096 3.0974219 1.956709
17.780096 3.0974219 1.866709
-26.319904 2.997422 -3.6982911
-26.119904 2.997422 -3.512291
-25.619904 2.997422 -3.0172911
-25.019903 2.997422 -2.4352911
-24.519903 2.997422 -2.337291
-23.719904 2.997422 -2.1682911
-22.419905 2.997422 -1.7952909
-21.119904 2.997422 -1.294291
-20.019903 2.997422 -0.81629097
-18.819904 2.997422 -0.30229101
-10.719904 2.997422 2.9347091
-9.1199036 2.997422 3.4107089
-6.119904 2.997422 4.0457091
-4.9199042 2.997422 4.1737089
-3.119904 2.997422 4.2307091
-2.8199041 2.997422 4.251709
-1.819904 2.997422 4.211709
-0.91990399 2.997422 4.1517091
0.180096 2.997422 4.027709
1.980096 2.997422 3.771709
2.4800961 2.997422 3.692709
4.380096 2.997422 3.3787091
4.6800961 2.997422 3.3457091
6.4800959 2.997422 3.0067091
10.380096 2.997422 2.386709
11.480096 2.997422 2.2467091
11.980096 2.997422 2.191709
17.180096 2.997422 1.868709
-26.819904 2.8974221 -4.163291
-12.419904 2.8974221 2.3127091
-11.219904 2.8974221 2.7627089
-9.7199039 2.8974221 3.2277091
-8.7199039 2.8974221 3.5007091
-7.8199039 2.8974221 3.725709
-7.3199039 2.8974221 3.823709
-6.7199039 2.8974221 3.9467089
-4.119904 2.8974221 4.2177091
-3.419904 2.8974221 4.2357092
-1.519904 2.8974221 4.1717091
-1.2199039 2.8974221 4.1507092
-0.61990398 2.8974221 4.099709
-0.119904 2.8974221 4.0497088
0.98009598 2.8974221 3.909709
5.5800958 2.8974221 3.155709
12.580096 2.8974221 2.1247089
18.780096 2.8974221 1.885709
20.180096 2.8974221 1.900709
20.880096 2.8974221 1.866709
-26.919905 2.7974219 -4.4142909
-26.519903 2.7974219 -3.899291
-25.819904 2.7974219 -3.3052909
-25.419905 2.7974219 -2.8852911
-23.019903 2.7974219 -1.9992909
-22.019903 2.7974219 -1.632291
-4.5199041 2.7974219 4.1807089
-2.619904 2.7974219 4.218709
0.48009601 2.7974219 3.968709
1.480096 2.7974219 3.833709
2.2800961 2.7974219 3.715709
2.880096 2.7974219 3.6257091
3.1800959 2.7974219 3.5697091
3.7800961 2.7974219 3.4697089
4.0800958 2.7974219 3.415709
4.9800959 2.7974219 3.2597089
6.0800958 2.7974219 3.0617089
7.9800959 2.7974219 2.7497089
13.180096 2.7974219 2.0887091
16.580095 2.7974219 1.901709
-27.319904 2.697422 -4.854291
-27.119904 2.697422 -4.8242912
-26.319904 2.697422 -3.7402911
-26.019903 2.697422 -3.462291
-25.619904 2.697422 -3.123291
-20.719904 2.697422 -1.082291
-14.619904 2.697422 1.453709
-13.419904 2.697422 1.933709
-12.819904 2.697422 2.1537089
-12.019904 2.697422 2.4737091
-10.919904 2.697422 2.8547089
-10.019904 2.697422 3.1317091
-9.2199039 2.697422 3.350709
-8.2199039 2.697422 3.623709
-7.119904 2.697422 3.863709
-6.5199041 2.697422 3.952709
-6.119904 2.697422 4.001709
-5.8199039 2.697422 4.0427089
-5.3199039 2.697422 4.0957088
-3.7199039 2.697422 4.2107091
-3.2199039 2.697422 4.2017088
-2.919904 2.697422 4.2077088
-1.819904 2.697422 4.1577091
-0.81990403 2.697422 4.0977092
-0.319904 2.697422 4.0457091
4.6800961 2.697422 3.294709
6.880096 2.697422 2.9337089
7.5800958 2.697422 2.8187089
8.9800959 2.697422 2.6017089
10.080096 2.697422 2.4207089
11.080096 2.697422 2.283709
21.880096 2.697422 1.9317091
-27.019903 2.5974219 -4.5852909
-26.619904 2.5974219 -4.0392909
-16.419905 2.5974219 0.68870902
-15.619904 2.5974219 1.031709
-13.919904 2.5974219 1.744709
-10.319904 2.5974219 3.0557089
-8.9199038 2.5974219 3.415709
-8.6199036 2.5974219 3.497709
-7.5199041 2.5974219 3.7657089
-6.8199039 2.5974219 3.8657091
-5.0199041 2.5974219 4.1177092
-4.7199039 2.5974219 4.1437092
-2.2199039 2.5974219 4.185709
-1.519904 2.5974219 4.1217089
-1.119904 2.5974219 4.093709
-0.019904001 2.5974219 4.008709
0.28009599 2.5974219 3.9697089
1.880096 2.5974219 3.7687089
3.4800961 2.5974219 3.4967091
4.2800961 2.5974219 3.350709
5.4800959 2.5974219 3.156709
5.7800961 2.5974219 3.1047089
6.4800959 2.5974219 2.984709
8.3800964 2.5974219 2.7007091
14.180096 2.5974219 2.014709
14.780096 2.5974219 2.034709
15.580096 2.5974219 2.0037091
17.980097 2.5974219 1.892709
-26.919905 2.497422 -4.4442911
-26.419905 2.497422 -3.8562911
-26.119904 2.497422 -3.6012909
-25.219904 2.497422 -2.7532909
-24.519903 2.497422 -2.2702911
-24.019903 2.497422 -2.182291
-23.419905 2.497422 -2.067291
-17.519903 2.497422 0.231709
-11.319904 2.497422 2.7037089
-7.8199039 2.497422 3.6677091
-5.5199041 2.497422 4.0397091
-4.0199041 2.497422 4.1677089
-3.5199039 2.497422 4.1737089
-2.7199039 2.497422 4.1667089
0.88009602 2.497422 3.8787091
1.2800961 2.497422 3.8457091
2.1800959 2.497422 3.725709
2.4800961 2.497422 3.6637089
2.9800961 2.497422 3.570709
3.9800961 2.497422 3.4147091
9.5800962 2.497422 2.5097089
13.680096 2.497422 2.0557089
16.080095 2.497422 1.947709
17.380096 2.497422 1.8987091
19.180096 2.497422 1.918709
21.380096 2.497422 1.834709
-26.719904 2.3974221 -4.2102909
-25.919905 2.3974221 -3.4632909
-25.719904 2.3974221 -3.294291
-25.519903 2.3974221 -3.1312909
-24.919905 2.3974221 -2.3452909
-22.919905 2.3974221 -1.910291
-22.219904 2.3974221 -1.673291
-21.219904 2.3974221 -1.284291
-10.619904 2.3974221 2.905709
-8.3199043 2.3974221 3.543709
-6.119904 2.3974221 3.9567089
-5.2199039 2.3974221 4.0697088
-4.4199042 2.3974221 4.1277089
-3.0199039 2.3974221 4.1697092
-2.419904 2.3974221 4.152709
-1.319904 2.3974221 4.0787091
-0.81990403 2.3974221 4.047709
-0.51990402 2.3974221 4.0237088
1.580096 2.3974221 3.804709
4.5800958 2.3974221 3.3087089
5.0800958 2.3974221 3.215709
10.780096 2.3974221 2.333709
12.780096 2.3974221 2.126709
22.180096 2.3974221 1.854709
-26.519903 2.2974219 -3.9832909
-12.519904 2.2974219 2.2437091
-9.6199036 2.2974219 3.215709
-9.1199036 2.2974219 3.343709
-8.7199039 2.2974219 3.4497089
-7.5199041 2.2974219 3.721709
-7.2199039 2.2974219 3.7567091
-6.5199041 2.2974219 3.8817091
-5.7199039 2.2974219 3.9867091
-4.7199039 2.2974219 4.0917091
-3.8199041 2.2974219 4.1357088
-1.819904 2.2974219 4.100709
-0.21990401 2.2974219 3.981709
0.080095999 2.2974219 3.9447091
0.68009597 2.2974219 3.883709
1.080096 2.2974219 3.836709
1.880096 2.2974219 3.7367091
5.6800961 2.2974219 3.1017089
6.2800961 2.2974219 3.0187089
6.6800961 2.2974219 2.9447091
7.2800961 2.2974219 2.8557091
7.6800961 2.2974219 2.7897091
11.480096 2.2974219 2.2597089
11.980096 2.2974219 2.205709
18.680096 2.2974219 1.911709
19.780096 2.2974219 1.9447089
-26.819904 2.197422 -4.5022912
-26.119904 2.197422 -3.639291
-25.319904 2.197422 -2.955291
-23.719904 2.197422 -2.0782909
-20.219904 2.197422 -0.87029099
-13.019904 2.197422 2.0657091
-10.019904 2.197422 3.0857091
-7.9199042 2.197422 3.635709
-6.8199039 2.197422 3.813709
-5.0199041 2.197422 4.047709
-4.119904 2.197422 4.099709
-3.419904 2.197422 4.119709
-2.8199041 2.197422 4.1237092
-2.2199039 2.197422 4.1077089
2.380096 2.197422 3.642709
2.6800959 2.197422 3.5947089
3.1800959 2.197422 3.5157089
3.4800961 2.197422 3.481709
3.7800961 2.197422 3.4277091
4.1800961 2.197422 3.3457091
8.0800962 2.197422 2.7337091
8.5800962 2.197422 2.659709
8.9800959 2.197422 2.589709
9.8800964 2.197422 2.4537089
10.280096 2.197422 2.4017091
-26.619904 2.0974219 -4.183291
-26.319904 2.0974219 -3.8612909
-25.919905 2.0974219 -3.4812911
-25.719904 2.0974219 -3.344291
-25.519903 2.0974219 -3.1872909
-23.319904 2.0974219 -1.973291
-21.619904 2.0974219 -1.418291
-20.819904 2.0974219 -1.107291
-11.619904 2.0974219 2.5687089
-11.119904 2.0974219 2.747709
-10.419904 2.0974219 2.9547091
-8.4199038 2.0974219 3.491709
-6.0199041 2.0974219 3.929709
-5.5199041 2.0974219 3.9797089
-4.5199041 2.0974219 4.0687089
-1.419904 2.0974219 4.0557089
-0.91990399 2.0974219 4.0177088
-0.51990402 2.0974219 3.9837091
0.28009599 2.0974219 3.9207089
0.88009602 2.0974219 3.836709
2.080096 2.0974219 3.6807089
4.4800959 2.0974219 3.2987089
5.1800961 2.0974219 3.1777091
5.9800959 2.0974219 3.0567091
6.9800959 2.0974219 2.902709
14.880096 2.0974219 2.0397091
17.780096 2.0974219 1.918709
20.480097 2.0974219 1.959709
-25.119904 1.997422 -2.811291
-24.219904 1.997422 -2.1752911
-22.819904 1.997422 -1.816291
-14.519904 1.997422 1.488709
-9.2199039 1.997422 3.270709
-8.8199043 1.997422 3.3757091
-8.1199036 1.997422 3.543709
-7.3199039 1.997422 3.708709
-7.0199041 1.997422 3.7567091
-6.619904 1.997422 3.8297091
-6.3199039 1.997422 3.846709
-3.919904 1.997422 4.0947089
-2.5199039 1.997422 4.0967088
-1.819904 1.997422 4.0507088
-0.21990401 1.997422 3.938709
0.58009601 1.997422 3.8577089
1.180096 1.997422 3.790709
1.480096 1.997422 3.7567091
4.7800961 1.997422 3.234709
11.180096 1.997422 2.2917089
12.580096 1.997422 2.1437089
13.080096 1.997422 2.1257091
14.380096 1.997422 2.060709
15.780096 1.997422 1.998709
16.480097 1.997422 1.942709
-26.819904 1.897422 -4.505291
-26.419905 1.897422 -3.9962909
-26.219904 1.897422 -3.7672911
-24.819904 1.897422 -2.5202911
-19.119904 1.897422 -0.38529101
-13.819904 1.897422 1.761709
-12.119904 1.897422 2.3847089
-9.8199043 1.897422 3.1277089
-5.2199039 1.897422 3.9957089
-4.7199039 1.897422 4.0367088
-4.3199039 1.897422 4.053709
-3.5199039 1.897422 4.0717092
-3.0199039 1.897422 4.0857091
-2.2199039 1.897422 4.0637088
-1.119904 1.897422 3.994709
0.080095999 1.897422 3.909709
1.880096 1.897422 3.6967089
2.2800961 1.897422 3.6317091
2.880096 1.897422 3.547709
3.4800961 1.897422 3.4597089
3.9800961 1.897422 3.3757091
5.6800961 1.897422 3.1017089
6.4800959 1.897422 2.968709
7.6800961 1.897422 2.7957089
10.580096 1.897422 2.3657091
13.880096 1.897422 2.086709
17.080095 1.897422 1.933709
22.880096 1.897422 1.871709
-25.919905 1.7974221 -3.548291
-25.419905 1.7974221 -3.162291
-23.919905 1.7974221 -2.0752909
-22.119904 1.7974221 -1.572291
-12.519904 1.7974221 2.2097089
-10.819904 1.7974221 2.810709
-10.219904 1.7974221 2.994709
-7.7199039 1.7974221 3.6077089
-6.8199039 1.7974221 3.7657089
-5.9199042 1.7974221 3.892709
-5.5199041 1.7974221 3.9407091
-2.7199039 1.7974221 4.0587091
-1.519904 1.7974221 4.0117092
0.98009598 1.7974221 3.8127091
3.1800959 1.7974221 3.4907091
7.2800961 1.7974221 2.8357091
8.0800962 1.7974221 2.728709
8.5800962 1.7974221 2.6637089
9.4800959 1.7974221 2.530709
10.180096 1.7974221 2.432709
21.480097 1.7974221 1.912709
22.080095 1.7974221 1.866709
-26.619904 1.697422 -4.354291
-25.719904 1.697422 -3.347291
-25.219904 1.697422 -2.982291
-23.119904 1.697422 -1.881291
-19.819904 1.697422 -0.661291
-16.119904 1.697422 0.85870898
-11.419904 1.697422 2.5927091
-7.4199042 1.697422 3.658709
-6.5199041 1.697422 3.780709
-6.2199039 1.697422 3.837709
-4.0199041 1.697422 4.033709
-0.81990403 1.697422 3.935709
-0.41990399 1.697422 3.912709
0.68009597 1.697422 3.8147089
1.2800961 1.697422 3.7457089
1.580096 1.697422 3.708709
2.4800961 1.697422 3.6047089
4.6800961 1.697422 3.247709
5.380096 1.697422 3.1447091
5.9800959 1.697422 3.0567091
11.480096 1.697422 2.270709
12.180096 1.697422 2.1997089
18.280096 1.697422 1.975709
-26.419905 1.597422 -4.1182909
-24.919905 1.597422 -2.729291
-21.619904 1.597422 -1.378291
-13.319904 1.597422 1.905709
-9.6199036 1.597422 3.1677091
-8.7199039 1.597422 3.3777089
-8.4199038 1.597422 3.4467089
-7.9199042 1.597422 3.5427091
-7.0199041 1.597422 3.692709
-5.119904 1.597422 3.9537089
-4.8199039 1.597422 3.9867091
-3.7199039 1.597422 4.0297089
-1.819904 1.597422 3.991709
-1.119904 1.597422 3.9477091
-0.119904 1.597422 3.8747089
0.28009599 1.597422 3.836709
3.6800959 1.597422 3.3947091
3.9800961 1.597422 3.3417089
4.380096 1.597422 3.2957089
5.0800958 1.597422 3.182709
23.380096 1.597422 1.739709
-26.219904 1.497422 -3.9442911
-25.919905 1.497422 -3.614291
-25.419905 1.497422 -3.172291
-24.619904 1.497422 -2.4512911
-22.419905 1.497422 -1.660291
-9.9199038 1.497422 3.0527091
-9.0199041 1.497422 3.267709
-5.7199039 1.497422 3.8787091
-4.5199041 1.497422 3.961709
-4.2199039 1.497422 3.988709
-3.3199041 1.497422 4.014709
-3.0199039 1.497422 4.0057092
-2.3199041 1.497422 3.984709
-1.419904 1.497422 3.961709
-0.61990398 1.497422 3.9017091
0.98009598 1.497422 3.770709
1.880096 1.497422 3.6487091
2.1800959 1.497422 3.616709
2.6800959 1.497422 3.540709
3.080096 1.497422 3.5097089
3.380096 1.497422 3.452709
5.6800961 1.497422 3.0817089
6.4800959 1.497422 2.9567089
9.0800962 1.497422 2.5917089
9.7800961 1.497422 2.4997089
10.680096 1.497422 2.3877089
12.780096 1.497422 2.1677091
13.380096 1.497422 2.1257091
15.080096 1.497422 2.047709
16.280096 1.497422 1.987709
17.580095 1.497422 1.989709
19.180096 1.497422 2.020709
20.680096 1.497422 2.017709
23.980097 1.497422 1.834709
-25.619904 1.397422 -3.3582909
-25.119904 1.397422 -2.945291
-24.419905 1.397422 -2.1482911
-23.719904 1.397422 -1.983291
-20.519903 1.397422 -0.95429099
-15.019904 1.397422 1.298709
-11.119904 1.397422 2.6707089
-10.619904 1.397422 2.8387091
-9.3199043 1.397422 3.201709
-6.7199039 1.397422 3.7307091
-6.2199039 1.397422 3.800709
-2.7199039 1.397422 3.9797089
-2.0199039 1.397422 3.974709
0.080095999 1.397422 3.8317089
1.480096 1.397422 3.7037089
4.7800961 1.397422 3.231709
6.880096 1.397422 2.886709
7.7800961 1.397422 2.7727089
11.080096 1.397422 2.3357091
20.180096 1.397422 2.017709
-26.619904 1.2974221 -4.5592909
-26.419905 1.2974221 -4.2272911
-23.319904 1.2974221 -1.887291
-22.019903 1.2974221 -1.483291
-18.419905 1.2974221 -0.073291004
-14.319904 1.2974221 1.5797091
-12.919904 1.2974221 2.0647089
-12.419904 1.2974221 2.238709
-12.019904 1.2974221 2.3747089
-8.0199041 1.2974221 3.487709
-7.7199039 1.2974221 3.5387089
-7.4199042 1.2974221 3.596709
-5.5199041 1.2974221 3.886709
-5.2199039 1.2974221 3.9077089
-3.619904 1.2974221 3.9797089
-1.7199039 1.2974221 3.929709
-0.91990399 1.2974221 3.892709
-0.41990399 1.2974221 3.863709
0.38009599 1.2974221 3.7867091
0.68009597 1.2974221 3.747709
2.880096 1.2974221 3.4867091
4.4800959 1.2974221 3.2667091
6.1800961 1.2974221 3.0057089
10.180096 1.2974221 2.442709
15.780096 1.2974221 2.0167091
18.580095 1.2974221 2.0267091
19.680096 1.2974221 2.033709
21.580095 1.2974221 1.9907089
-26.119904 1.197422 -3.8842909
-21.219904 1.197422 -1.1852911
-11.619904 1.197422 2.501709
-10.119904 1.197422 2.951709
-8.7199039 1.197422 3.326709
-8.3199043 1.197422 3.4047091
-7.119904 1.197422 3.632709
-6.4199042 1.197422 3.735709
-6.0199041 1.197422 3.7927091
-4.9199042 1.197422 3.9037089
-4.619904 1.197422 3.922709
-4.3199039 1.197422 3.948709
-4.0199041 1.197422 3.9477091
-0.119904 1.197422 3.8247089
1.2800961 1.197422 3.6907091
1.880096 1.197422 3.6077089
2.380096 1.197422 3.544709
3.4800961 1.197422 3.389709
3.7800961 1.197422 3.3477089
4.1800961 1.197422 3.2957089
8.0800962 1.197422 2.734709
8.4800959 1.197422 2.6737089
13.780096 1.197422 2.1047089
14.380096 1.197422 2.0817089
22.480097 1.197422 1.912709
24.480097 1.197422 1.733709
-26.519903 1.097422 -4.4622908
-25.919905 1.097422 -3.6682911
-25.419905 1.097422 -3.232291
-25.019903 1.097422 -2.9012909
-10.819904 1.097422 2.714709
-9.1199036 1.097422 3.2037089
-3.2199039 1.097422 3.9397089
-2.919904 1.097422 3.9447091
-2.419904 1.097422 3.922709
-1.519904 1.097422 3.9017091
-1.119904 1.097422 3.8877089
0.98009598 1.097422 3.7137091
2.6800959 1.097422 3.4927089
4.9800959 1.097422 3.188709
5.380096 1.097422 3.1277089
6.4800959 1.097422 2.955709
7.2800961 1.097422 2.836709
9.1800957 1.097422 2.5627091
11.580096 1.097422 2.2887089
16.880096 1.097422 2.0127089
18.080095 1.097422 2.0457089
-25.719904 0.99742198 -3.491291
-24.719904 0.99742198 -2.6702909
-23.019903 0.99742198 -1.801291
-19.819904 0.99742198 -0.62029099
-13.419904 0.99742198 1.889709
-10.419904 0.99742198 2.836709
-9.4199038 0.99742198 3.1217091
-8.0199041 0.99742198 3.4377091
-6.7199039 0.99742198 3.665709
-6.2199039 0.99742198 3.7297089
-5.619904 0.99742198 3.8127091
-5.2199039 0.99742198 3.8447089
-2.119904 0.99742198 3.905709
-0.81990403 0.99742198 3.840709
-0.319904 0.99742198 3.8097091
0.58009601 0.99742198 3.7457089
1.580096 0.99742198 3.623709
2.1800959 0.99742198 3.5587089
3.080096 0.99742198 3.4247091
4.6800961 0.99742198 3.1997089
5.7800961 0.99742198 3.0517089
9.5800962 0.99742198 2.4897089
12.480096 0.99742198 2.211709
20.580095 0.99742198 2.053709
21.180096 0.99742198 2.050709
23.480097 0.99742198 1.815709
-26.319904 0.89742202 -4.2562909
-26.119904 0.89742202 -3.9352911
-25.219904 0.89742202 -3.0952909
-24.319904 0.89742202 -2.2312911
-23.919905 0.89742202 -1.984291
-21.719904 0.89742202 -1.341291
-20.819904 0.89742202 -0.99829102
-11.319904 0.89742202 2.5647089
-9.8199043 0.89742202 2.9997089
-8.4199038 0.89742202 3.3457091
-7.619904 0.89742202 3.5027089
-4.8199039 0.89742202 3.8587091
-4.0199041 0.89742202 3.9007089
-3.7199039 0.89742202 3.906709
-2.7199039 0.89742202 3.925709
0.080095999 0.89742202 3.7527089
1.180096 0.89742202 3.658709
3.7800961 0.89742202 3.3257091
4.0800958 0.89742202 3.284709
4.380096 0.89742202 3.2407091
6.1800961 0.89742202 2.9907091
6.880096 0.89742202 2.8917091
11.080096 0.89742202 2.3487091
13.180096 0.89742202 2.159709
18.980097 0.89742202 2.076709
25.380096 0.89742202 1.759709
-23.419905 0.79742199 -1.855291
-16.419905 0.79742199 0.75670898
-14.019904 0.79742199 1.665709
-12.419904 0.79742199 2.1997089
-11.919904 0.79742199 2.3577089
-8.8199043 0.79742199 3.225709
-7.3199039 0.79742199 3.537709
-7.0199041 0.79742199 3.577709
-5.9199042 0.79742199 3.761709
-4.3199039 0.79742199 3.8877089
-3.419904 0.79742199 3.885709
-2.3199041 0.79742199 3.876709
-1.819904 0.79742199 3.856709
-1.519904 0.79742199 3.846709
-1.119904 0.79742199 3.8187089
0.38009599 0.79742199 3.7267089
1.7800961 0.79742199 3.5947089
2.6800959 0.79742199 3.4777091
7.7800961 0.79742199 2.777709
8.8800964 0.79742199 2.6177089
10.280096 0.79742199 2.4467089
12.080096 0.79742199 2.2437091
14.080096 0.79742199 2.1207089
15.880096 0.79742199 2.0517089
17.480097 0.79742199 2.0627091
19.580095 0.79742199 2.0917089
22.880096 0.79742199 1.934709
-25.919905 0.69742203 -3.7922909
-25.519903 0.69742203 -3.3982911
-25.019903 0.69742203 -2.995291
-24.619904 0.69742203 -2.617291
-22.719904 0.69742203 -1.646291
-10.119904 0.69742203 2.889709
-9.2199039 0.69742203 3.1277089
-8.1199036 0.69742203 3.3717091
-6.619904 0.69742203 3.6347089
-6.3199039 0.69742203 3.669709
-5.4199042 0.69742203 3.780709
-5.119904 0.69742203 3.8157091
-4.619904 0.69742203 3.8517089
-3.119904 0.69742203 3.885709
-0.61990398 0.69742203 3.7917089
-0.21990401 0.69742203 3.7567091
0.88009602 0.69742203 3.685709
2.2800961 0.69742203 3.5187089
3.380096 0.69742203 3.359709
5.1800961 0.69742203 3.112709
6.5800958 0.69742203 2.9337089
10.680096 0.69742203 2.3977089
14.680096 0.69742203 2.122709
15.380096 0.69742203 2.0887091
21.880096 0.69742203 2.060709
-26.219904 0.597422 -4.2672911
-25.719904 0.597422 -3.5762911
-25.319904 0.597422 -3.2102909
-24.819904 0.597422 -2.808291
-24.419905 0.597422 -2.426291
-22.219904 0.597422 -1.507291
-8.5199041 0.597422 3.2697091
-7.8199039 0.597422 3.4177091
-3.919904 0.597422 3.8587091
-3.619904 0.597422 3.853709
-2.8199041 0.597422 3.853709
-2.5199039 0.597422 3.8487091
-2.119904 0.597422 3.850709
-1.319904 0.597422 3.807709
1.2800961 0.597422 3.6207089
1.980096 0.597422 3.5647089
2.880096 0.597422 3.419709
4.5800958 0.597422 3.2007091
5.4800959 0.597422 3.066709
7.380096 0.597422 2.836709
8.3800964 0.597422 2.691709
9.3800964 0.597422 2.5617089
9.8800964 0.597422 2.498709
11.380096 0.597422 2.3257091
20.080095 0.597422 2.135709
23.980097 0.597422 1.881709
25.980097 0.597422 1.787709
-26.019903 0.49742201 -3.988291
-17.419905 0.49742201 0.38070899
-15.019904 0.49742201 1.312709
-13.519904 0.49742201 1.8297091
-13.019904 0.49742201 2.011709
-11.519904 0.49742201 2.4607091
-10.719904 0.49742201 2.7097089
-9.5199041 0.49742201 3.0387089
-6.9199042 0.49742201 3.5697091
-5.7199039 0.49742201 3.7397089
-1.819904 0.49742201 3.8087089
-0.91990399 0.49742201 3.761709
-0.019904001 0.49742201 3.718709
0.38009599 0.49742201 3.6807089
0.68009597 0.49742201 3.665709
1.580096 0.49742201 3.5717089
3.6800959 0.49742201 3.3147089
4.1800961 0.49742201 3.2367091
6.1800961 0.49742201 2.9667089
6.9800959 0.49742201 2.866709
13.680096 0.49742201 2.1617091
24.680096 0.49742201 1.837709
-25.019903 0.39742199 -2.9902911
-24.619904 0.39742199 -2.666291
-24.019903 0.39742199 -2.034291
-21.519903 0.39742199 -1.253291
-20.219904 0.39742199 -0.74329102
-12.119904 0.39742199 2.2767091
-10.319904 0.39742199 2.8147089
-8.9199038 0.39742199 3.1577089
-7.4199042 0.39742199 3.487709
-6.4199042 0.39742199 3.610709
-6.119904 0.39742199 3.6637089
-4.619904 0.39742199 3.8017089
-4.3199039 0.39742199 3.820709
-3.419904 0.39742199 3.8317089
-0.319904 0.39742199 3.721709
2.380096 0.39742199 3.4667089
3.380096 0.39742199 3.3457091
7.9800959 0.39742199 2.734709
8.9800959 0.39742199 2.6187091
12.780096 0.39742199 2.198709
16.180096 0.39742199 2.0987091
16.980097 0.39742199 2.1157091
18.080095 0.39742199 2.1317091
18.580095 0.39742199 2.1307089
22.380096 0.39742199 2.0847089
23.480097 0.39742199 1.989709
-26.119904 0.29742199 -4.2242908
-25.819904 0.29742199 -3.774291
-25.419905 0.29742199 -3.3332911
-23.519903 0.29742199 -1.806291
-23.019903 0.29742199 -1.710291
-20.819904 0.29742199 -0.97029102
-19.019903 0.29742199 -0.272291
-8.3199043 0.29742199 3.2757089
-7.7199039 0.29742199 3.3917091
-5.0199041 0.29742199 3.7507091
-4.0199041 0.29742199 3.797709
-3.119904 0.29742199 3.8117089
-2.8199041 0.29742199 3.8127091
-2.5199039 0.29742199 3.8097091
-2.2199039 0.29742199 3.8127091
-1.619904 0.29742199 3.7767091
-1.2199039 0.29742199 3.748709
0.180096 0.29742199 3.6807089
0.88009602 0.29742199 3.623709
1.880096 0.29742199 3.5167091
4.7800961 0.29742199 3.155709
5.1800961 0.29742199 3.100709
10.180096 0.29742199 2.4767089
10.880096 0.29742199 2.396709
19.480097 0.29742199 2.155709
20.580095 0.29742199 2.1867089
21.580095 0.29742199 2.1637089
25.280096 0.29742199 1.826709
26.580095 0.29742199 1.9267091
-25.219904 0.197422 -3.1582911
-24.219904 0.197422 -2.327291
-11.119904 0.197422 2.5597091
-9.8199043 0.197422 2.9217091
-7.119904 0.197422 3.4907091
-5.9199042 0.197422 3.649709
-5.3199039 0.197422 3.721709
-3.7199039 0.197422 3.7897091
-1.919904 0.197422 3.758709
-0.71990401 0.197422 3.7307091
-0.119904 0.197422 3.701709
0.58009601 0.197422 3.6477089
1.380096 0.197422 3.5757091
2.580096 0.197422 3.4217091
3.7800961 0.197422 3.260709
4.1800961 0.197422 3.2167089
5.9800959 0.197422 2.984709
6.380096 0.197422 2.948709
8.2800961 0.197422 2.6947091
11.680096 0.197422 2.310709
14.380096 0.197422 2.1607089
21.080095 0.197422 2.1837089
22.880096 0.197422 2.109709
-25.919905 0.097421996 -3.9992909
-25.619904 0.097421996 -3.5752909
-25.019903 0.097421996 -2.985291
-24.719904 0.097421996 -2.778291
-14.219904 0.097421996 1.577709
-12.619904 0.097421996 2.093709
-8.0199041 0.097421996 3.3097091
-6.3199039 0.097421996 3.580709
-4.619904 0.097421996 3.748709
-4.2199039 0.097421996 3.761709
-1.419904 0.097421996 3.748709
-0.41990399 0.097421996 3.6877091
1.080096 0.097421996 3.560709
2.9800961 0.097421996 3.366709
3.2800961 0.097421996 3.3287089
4.4800959 0.097421996 3.1717091
7.4800959 0.097421996 2.8057089
8.6800957 0.097421996 2.6517091
9.6800957 0.097421996 2.531709
12.380096 0.097421996 2.260709
14.880096 0.097421996 2.152709
17.380096 0.097421996 2.1057091
19.980097 0.097421996 2.215709
24.380096 0.097421996 2.011709
-24.419905 -0.0025780001 -2.5592909
-11.619904 -0.0025780001 2.4207089
-10.619904 -0.0025780001 2.6707089
-9.2199039 -0.0025780001 3.0517089
-6.619904 -0.0025780001 3.533709
-5.7199039 -0.0025780001 3.635709
-5.119904 -0.0025780001 3.6847091
-2.7199039 -0.0025780001 3.7597089
-2.419904 -0.0025780001 3.758709
-2.119904 -0.0025780001 3.7467091
0.38009599 -0.0025780001 3.6247089
1.680096 -0.0025780001 3.498709
2.080096 -0.0025780001 3.4597089
5.380096 -0.0025780001 3.057709
6.7800961 -0.0025780001 2.9007089
7.880096 -0.0025780001 2.7567091
9.1800957 -0.0025780001 2.5917089
11.280096 -0.0025780001 2.3717091
13.080096 -0.0025780001 2.2397089
26.980097 -0.0025780001 1.8887089
-25.819904 -0.102578 -3.866291
-25.519903 -0.102578 -3.4442911
-22.519903 -0.102578 -1.516291
-21.919905 -0.102578 -1.337291
-12.019904 -0.102578 2.2797091
-8.5199041 -0.102578 3.1847091
-7.2199039 -0.102578 3.425709
-5.4199042 -0.102578 3.6517091
-3.7199039 -0.102578 3.728709
-3.3199041 -0.102578 3.734709
-3.0199039 -0.102578 3.7427089
-1.619904 -0.102578 3.724709
-0.91990399 -0.102578 3.695709
0.68009597 -0.102578 3.587709
1.2800961 -0.102578 3.531709
2.6800959 -0.102578 3.369709
3.580096 -0.102578 3.264709
4.9800959 -0.102578 3.103709
15.580096 -0.102578 2.1667089
16.780096 -0.102578 2.1547091
22.380096 -0.102578 2.191709
24.880096 -0.102578 2.004709
26.180096 -0.102578 1.915709
-25.919905 -0.20257799 -4.1122909
-25.219904 -0.20257799 -3.1342909
-24.919905 -0.20257799 -2.9352911
-24.019903 -0.20257799 -2.1542909
-23.119904 -0.20257799 -1.661291
-15.219904 -0.20257799 1.221709
-13.419904 -0.20257799 1.848709
-11.219904 -0.20257799 2.484709
-9.5199041 -0.20257799 2.929709
-7.619904 -0.20257799 3.3487091
-6.9199042 -0.20257799 3.4727089
-6.3199039 -0.20257799 3.530709
-4.9199042 -0.20257799 3.685709
-4.5199041 -0.20257799 3.6997089
-4.119904 -0.20257799 3.714709
-1.319904 -0.20257799 3.7037089
-0.41990399 -0.20257799 3.6707089
0.180096 -0.20257799 3.619709
0.98009598 -0.20257799 3.5467091
3.9800961 -0.20257799 3.208709
4.6800961 -0.20257799 3.1317091
5.9800959 -0.20257799 2.978709
7.0800958 -0.20257799 2.8577089
11.880096 -0.20257799 2.3247089
13.480096 -0.20257799 2.2437091
13.980096 -0.20257799 2.198709
16.280096 -0.20257799 2.1777091
19.380096 -0.20257799 2.2397089
21.380096 -0.20257799 2.2527089
23.480097 -0.20257799 2.139709
-25.419905 -0.302578 -3.331291
-24.619904 -0.302578 -2.7672911
-23.719904 -0.302578 -1.7952909
-10.319904 -0.302578 2.7177091
-8.8199043 -0.302578 3.0787089
-5.8199039 -0.302578 3.580709
-2.7199039 -0.302578 3.725709
-2.419904 -0.302578 3.698709
-2.0199039 -0.302578 3.698709
-0.119904 -0.302578 3.623709
1.480096 -0.302578 3.4837091
2.2800961 -0.302578 3.4147091
3.1800959 -0.302578 3.2867091
5.5800958 -0.302578 3.0237091
8.4800959 -0.302578 2.685709
9.9800959 -0.302578 2.517709
10.380096 -0.302578 2.4737091
18.780096 -0.302578 2.247709
20.680096 -0.302578 2.287709
21.880096 -0.302578 2.254709
22.880096 -0.302578 2.2107091
25.480097 -0.302578 2.020709
-25.719904 -0.402578 -3.8252909
-24.319904 -0.402578 -2.5332911
-21.519903 -0.402578 -1.178291
-19.719904 -0.402578 -0.50029099
-12.519904 -0.402578 2.110709
-10.719904 -0.402578 2.600709
-9.8199043 -0.402578 2.836709
-8.3199043 -0.402578 3.162709
-7.9199042 -0.402578 3.238709
-7.2199039 -0.402578 3.3777089
-3.5199039 -0.402578 3.698709
-1.019904 -0.402578 3.668709
1.880096 -0.402578 3.4547091
2.880096 -0.402578 3.3477089
4.380096 -0.402578 3.149709
6.380096 -0.402578 2.9217091
7.7800961 -0.402578 2.7667091
8.8800964 -0.402578 2.6407089
9.2800961 -0.402578 2.593709
10.780096 -0.402578 2.4377091
11.480096 -0.402578 2.3657091
14.480096 -0.402578 2.214709
17.980097 -0.402578 2.2367091
-25.519903 -0.50257802 -3.4932909
-24.819904 -0.50257802 -2.9342909
-20.319904 -0.50257802 -0.73629099
-18.519903 -0.50257802 -0.035291001
-16.719904 -0.50257802 0.662709
-14.119904 -0.50257802 1.591709
-6.9199042 -0.50257802 3.402709
-6.4199042 -0.50257802 3.4637091
-6.0199041 -0.50257802 3.5167091
-5.619904 -0.50257802 3.560709
-5.3199039 -0.50257802 3.586709
-5.0199041 -0.50257802 3.6207089
-4.7199039 -0.50257802 3.642709
-4.2199039 -0.50257802 3.658709
-3.8199041 -0.50257802 3.665709
-3.2199039 -0.50257802 3.685709
-2.2199039 -0.50257802 3.6817091
-1.319904 -0.50257802 3.662709
-0.71990401 -0.50257802 3.6247089
0.48009601 -0.50257802 3.544709
0.88009602 -0.50257802 3.508709
2.580096 -0.50257802 3.3427091
4.0800958 -0.50257802 3.168709
4.880096 -0.50257802 3.0797091
5.2800961 -0.50257802 3.0357089
6.880096 -0.50257802 2.846709
12.980096 -0.50257802 2.277709
14.980096 -0.50257802 2.2197089
17.280096 -0.50257802 2.2437091
-24.019903 -0.60257798 -2.271291
-11.419904 -0.60257798 2.379709
-2.7199039 -0.60257798 3.6677091
-1.7199039 -0.60257798 3.6487091
-0.319904 -0.60257798 3.593709
-0.019904001 -0.60257798 3.5687089
1.180096 -0.60257798 3.494709
3.1800959 -0.60257798 3.270709
3.6800959 -0.60257798 3.2097089
5.9800959 -0.60257798 2.9547091
7.4800959 -0.60257798 2.794709
12.280096 -0.60257798 2.3197091
15.880096 -0.60257798 2.247709
18.380096 -0.60257798 2.283709
20.080095 -0.60257798 2.3317089
24.580095 -0.60257798 2.1807089
25.080095 -0.60257798 2.149709
-25.719904 -0.70257801 -4.0172911
-25.219904 -0.70257801 -3.297291
-24.519903 -0.70257801 -2.738291
-23.519903 -0.70257801 -1.695291
-22.619904 -0.70257801 -1.463291
-21.019903 -0.70257801 -0.97729099
-11.019904 -0.70257801 2.4767089
-9.3199043 -0.70257801 2.899709
-8.6199036 -0.70257801 3.057709
-7.619904 -0.70257801 3.254709
-4.4199042 -0.70257801 3.6247089
-3.5199039 -0.70257801 3.635709
-3.0199039 -0.70257801 3.6607089
-2.0199039 -0.70257801 3.646709
-1.119904 -0.70257801 3.6247089
0.68009597 -0.70257801 3.5037091
1.980096 -0.70257801 3.399709
6.5800958 -0.70257801 2.8907089
8.4800959 -0.70257801 2.6967089
9.8800964 -0.70257801 2.5487089
11.080096 -0.70257801 2.4267089
20.980097 -0.70257801 2.349709
23.380096 -0.70257801 2.283709
23.980097 -0.70257801 2.2267089
25.980097 -0.70257801 2.0787089
26.580095 -0.70257801 2.0417089
27.280096 -0.70257801 1.961709
-25.419905 -0.80257797 -3.491291
-24.919905 -0.80257797 -3.0452909
-14.619904 -0.80257797 1.387709
-11.919904 -0.80257797 2.2337091
-8.3199043 -0.80257797 3.1207089
-6.619904 -0.80257797 3.389709
-6.2199039 -0.80257797 3.4397089
-5.8199039 -0.80257797 3.4807091
-5.5199041 -0.80257797 3.5097089
-4.0199041 -0.80257797 3.609709
-2.419904 -0.80257797 3.6377089
-0.81990403 -0.80257797 3.596709
1.580096 -0.80257797 3.425709
2.2800961 -0.80257797 3.3707089
4.380096 -0.80257797 3.135709
5.6800961 -0.80257797 3.011709
7.9800959 -0.80257797 2.7297089
8.8800964 -0.80257797 2.6507089
9.4800959 -0.80257797 2.586709
10.280096 -0.80257797 2.5037091
16.780096 -0.80257797 2.283709
17.680096 -0.80257797 2.307709
19.280096 -0.80257797 2.330709
21.580095 -0.80257797 2.3707089
22.780096 -0.80257797 2.3187089
-24.319904 -0.902578 -2.6012909
-23.019903 -0.902578 -1.571291
-15.819904 -0.902578 0.97070903
-10.419904 -0.902578 2.6307089
-9.7199039 -0.902578 2.8067091
-6.9199042 -0.902578 3.349709
-5.2199039 -0.902578 3.5467091
-3.2199039 -0.902578 3.6027091
-0.319904 -0.902578 3.557709
0.28009599 -0.902578 3.533709
1.080096 -0.902578 3.4497089
2.580096 -0.902578 3.294709
2.880096 -0.902578 3.277709
3.2800961 -0.902578 3.2327089
3.7800961 -0.902578 3.1867089
6.9800959 -0.902578 2.850709
13.180096 -0.902578 2.3387091
13.680096 -0.902578 2.304709
14.480096 -0.902578 2.2527089
15.380096 -0.902578 2.287709
20.480097 -0.902578 2.392709
-25.619904 -1.002578 -3.978291
-25.119904 -1.002578 -3.2822909
-24.619904 -1.002578 -2.8282909
-22.219904 -1.002578 -1.325291
-13.019904 -1.002578 1.901709
-9.0199041 -1.002578 2.9637091
-8.0199041 -1.002578 3.145709
-7.2199039 -1.002578 3.2757089
-6.4199042 -1.002578 3.3987091
-4.9199042 -1.002578 3.5157089
-4.5199041 -1.002578 3.5587089
-3.7199039 -1.002578 3.5847089
-2.8199041 -1.002578 3.5947089
-2.119904 -1.002578 3.5977089
-1.419904 -1.002578 3.5987091
-1.119904 -1.002578 3.570709
-0.61990398 -1.002578 3.5657091
4.6800961 -1.002578 3.077709
5.0800958 -1.002578 3.0357089
5.9800959 -1.002578 2.962709
6.380096 -1.002578 2.9177091
7.380096 -1.002578 2.7997091
10.780096 -1.002578 2.465709
11.380096 -1.002578 2.4307089
11.980096 -1.002578 2.3807089
12.480096 -1.002578 2.3577089
18.580095 -1.002578 2.3687091
22.380096 -1.002578 2.385709
-25.319904 -1.102578 -3.4642911
-24.919905 -1.102578 -3.061291
-24.119904 -1.102578 -2.4702909
-23.819904 -1.102578 -2.1612909
-23.419905 -1.102578 -1.637291
-21.519903 -1.102578 -1.103291
-19.919905 -1.102578 -0.53829098
-13.819904 -1.102578 1.634709
-12.419904 -1.102578 2.0817089
-11.319904 -1.102578 2.360709
-10.819904 -1.102578 2.4937091
-8.6199036 -1.102578 2.9827089
-7.5199041 -1.102578 3.212709
-5.7199039 -1.102578 3.442709
-4.2199039 -1.102578 3.5467091
-3.419904 -1.102578 3.5857091
-2.5199039 -1.102578 3.587709
-1.7199039 -1.102578 3.576709
-0.019904001 -1.102578 3.531709
0.58009601 -1.102578 3.465709
1.680096 -1.102578 3.3707089
2.1800959 -1.102578 3.3257091
4.1800961 -1.102578 3.139709
19.780096 -1.102578 2.406709
21.180096 -1.102578 2.425709
25.480097 -1.102578 2.261709
-24.419905 -1.2025779 -2.6672909
-5.3199039 -1.2025779 3.458709
-3.119904 -1.2025779 3.563709
0.98009598 -1.2025779 3.428709
1.2800961 -1.2025779 3.3947091
3.080096 -1.2025779 3.2207091
3.4800961 -1.2025779 3.1897089
3.880096 -1.2025779 3.1507089
5.5800958 -1.2025779 2.9827089
6.7800961 -1.2025779 2.8647089
8.6800957 -1.2025779 2.659709
9.8800964 -1.2025779 2.5647089
10.280096 -1.2025779 2.5187089
16.080095 -1.2025779 2.320709
17.380096 -1.2025779 2.382709
23.280096 -1.2025779 2.418709
24.080095 -1.2025779 2.3877089
27.180096 -1.2025779 2.093709
-25.419905 -1.302578 -3.682291
-24.719904 -1.302578 -2.8692911
-22.619904 -1.302578 -1.398291
-20.719904 -1.302578 -0.80829102
-11.819904 -1.302578 2.2197089
-9.6199036 -1.302578 2.751709
-9.2199039 -1.302578 2.8517089
-6.619904 -1.302578 3.326709
-6.119904 -1.302578 3.3757091
-4.8199039 -1.302578 3.4867091
-4.4199042 -1.302578 3.504709
-4.0199041 -1.302578 3.5197091
-2.0199039 -1.302578 3.547709
-1.419904 -1.302578 3.544709
-0.71990401 -1.302578 3.5197091
0.180096 -1.302578 3.4837091
2.580096 -1.302578 3.258709
7.1800961 -1.302578 2.8187089
7.5800958 -1.302578 2.7917089
8.0800962 -1.302578 2.731709
9.0800962 -1.302578 2.6257091
9.4800959 -1.302578 2.5927091
13.380096 -1.302578 2.3717091
19.280096 -1.302578 2.4267089
20.680096 -1.302578 2.4597089
22.780096 -1.302578 2.438709
24.580095 -1.302578 2.3777089
25.080095 -1.302578 2.362709
-25.519903 -1.402578 -3.9172909
-25.119904 -1.402578 -3.3252909
-14.519904 -1.402578 1.412709
-13.319904 -1.402578 1.774709
-10.219904 -1.402578 2.626709
-8.8199043 -1.402578 2.922709
-8.3199043 -1.402578 3.0097089
-7.9199042 -1.402578 3.090709
-7.2199039 -1.402578 3.2227089
-5.7199039 -1.402578 3.396709
-2.3199041 -1.402578 3.547709
-0.41990399 -1.402578 3.4807091
-0.119904 -1.402578 3.4697089
0.58009601 -1.402578 3.4397089
1.680096 -1.402578 3.353709
6.0800958 -1.402578 2.945709
6.4800959 -1.402578 2.8977089
10.880096 -1.402578 2.485709
12.880096 -1.402578 2.396709
13.880096 -1.402578 2.3687091
18.080095 -1.402578 2.4567089
20.180096 -1.402578 2.4807091
25.880096 -1.402578 2.3087089
28.180096 -1.402578 2.1477089
-24.319904 -1.502578 -2.580291
-24.019903 -1.502578 -2.4012909
-19.319904 -1.502578 -0.29529101
-12.719904 -1.502578 1.940709
-10.619904 -1.502578 2.5137091
-3.5199039 -1.502578 3.5037091
-3.2199039 -1.502578 3.5137091
-2.919904 -1.502578 3.520709
-1.2199039 -1.502578 3.4997089
-0.91990399 -1.502578 3.487709
0.98009598 -1.502578 3.4047091
3.380096 -1.502578 3.179709
4.6800961 -1.502578 3.0747089
5.1800961 -1.502578 3.0327089
11.980096 -1.502578 2.412709
14.480096 -1.502578 2.3777089
18.780096 -1.502578 2.4697089
21.780096 -1.502578 2.5187089
22.280096 -1.502578 2.497709
26.680096 -1.502578 2.2497089
-25.219904 -1.602578 -3.502291
-23.219904 -1.602578 -1.510291
-11.019904 -1.602578 2.406709
-7.619904 -1.602578 3.1347089
-6.7199039 -1.602578 3.248709
-6.3199039 -1.602578 3.310709
-4.7199039 -1.602578 3.4447091
-4.3199039 -1.602578 3.458709
-3.919904 -1.602578 3.481709
-2.5199039 -1.602578 3.5027089
-2.119904 -1.602578 3.5027089
-1.819904 -1.602578 3.498709
1.2800961 -1.602578 3.3617091
2.1800959 -1.602578 3.294709
2.880096 -1.602578 3.2207091
7.7800961 -1.602578 2.7627089
8.6800957 -1.602578 2.672709
14.980096 -1.602578 2.3657091
23.480097 -1.602578 2.5187089
27.580095 -1.602578 2.178709
-24.819904 -1.7025779 -3.024291
-24.519903 -1.7025779 -2.7232909
-23.719904 -1.7025779 -2.149291
-22.219904 -1.7025779 -1.256291
-21.619904 -1.7025779 -1.0682909
-9.2199039 -1.7025779 2.7927091
-8.6199036 -1.7025779 2.9007089
-8.1199036 -1.7025779 3.0167091
-5.619904 -1.7025779 3.3747089
-5.2199039 -1.7025779 3.392709
-1.519904 -1.7025779 3.4777091
0.38009599 -1.7025779 3.399709
1.880096 -1.7025779 3.3087089
2.4800961 -1.7025779 3.2237091
4.1800961 -1.7025779 3.1207089
5.4800959 -1.7025779 3.0027089
5.880096 -1.7025779 2.958709
6.6800961 -1.7025779 2.8847089
7.0800958 -1.7025779 2.8187089
8.2800961 -1.7025779 2.7227089
9.1800957 -1.7025779 2.6317091
9.9800959 -1.7025779 2.553709
15.680096 -1.7025779 2.4247091
16.680096 -1.7025779 2.4407091
17.780096 -1.7025779 2.481709
18.480097 -1.7025779 2.554709
19.180096 -1.7025779 2.510709
20.880096 -1.7025779 2.5527091
22.980097 -1.7025779 2.5367091
24.580095 -1.7025779 2.497709
25.380096 -1.7025779 2.4377091
26.280096 -1.7025779 2.349709
-25.019903 -1.802578 -3.3192911
-14.919904 -1.802578 1.209709
-13.919904 -1.802578 1.533709
-12.019904 -1.802578 2.1217091
-10.219904 -1.802578 2.5797091
-7.3199039 -1.802578 3.132709
-0.81990403 -1.802578 3.4507091
-0.51990402 -1.802578 3.4277091
-0.019904001 -1.802578 3.4137089
0.78009599 -1.802578 3.3647089
1.580096 -1.802578 3.3117089
3.2800961 -1.802578 3.1607089
3.6800959 -1.802578 3.1517091
4.9800959 -1.802578 3.027709
11.680096 -1.802578 2.462709
12.680096 -1.802578 2.435709
13.580096 -1.802578 2.4167089
17.280096 -1.802578 2.4967091
19.780096 -1.802578 2.567709
24.080095 -1.802578 2.531709
-25.319904 -1.902578 -3.752291
-24.119904 -1.902578 -2.4512911
-20.119904 -1.902578 -0.57029098
-15.819904 -1.902578 0.90370899
-11.519904 -1.902578 2.2507091
-6.619904 -1.902578 3.2197089
-6.119904 -1.902578 3.2667091
-4.5199041 -1.902578 3.4367089
-4.119904 -1.902578 3.4337089
-3.8199041 -1.902578 3.448709
-3.5199039 -1.902578 3.438709
-2.8199041 -1.902578 3.458709
-2.2199039 -1.902578 3.4727089
-1.919904 -1.902578 3.4577091
-1.119904 -1.902578 3.448709
2.7800961 -1.902578 3.214709
6.380096 -1.902578 2.895709
9.5800962 -1.902578 2.5927091
10.480096 -1.902578 2.5267091
11.180096 -1.902578 2.481709
14.280096 -1.902578 2.435709
18.180096 -1.902578 2.5297091
21.380096 -1.902578 2.586709
21.880096 -1.902578 2.6147089
22.380096 -1.902578 2.6147089
