# .PCD v0.7 - Point Cloud Data file format
VERSION 0.7
FIELDS x y z
SIZE 4 4 4
TYPE F F F
COUNT 1 1 1
WIDTH 1532
HEIGHT 1
VIEWPOINT 0 0 0 1 0 0 0
POINTS 1532
DATA ascii
12.402096 -6.2715778 -3.801291
11.402096 -6.2715778 -3.7072909
9.9020958 -6.2715778 -3.6122911
7.702096 -6.2715778 -3.498291
7.202096 -6.2715778 -3.469291
6.202096 -6.2715778 -3.3742909
5.8020959 -6.2715778 -3.232291
5.1020961 -6.2715778 -3.091291
4.3020959 -6.2715778 -2.975291
3.902096 -6.2715778 -2.910291
1.5020961 -6.2715778 -2.7072909
1.0020961 -6.2715778 -2.6652911
0.102096 -6.2715778 -2.5822909
-0.39790401 -6.2715778 -2.5822909
-12.097904 -6.2715778 -2.8782909
-12.797904 -6.2715778 -2.900291
-17.097904 -6.2715778 -3.2142911
-18.797903 -6.2715778 -3.1582911
-19.397903 -6.2715778 -3.1352911
30.002096 -6.3715782 3.514709
29.402096 -6.3715782 3.112709
28.202097 -6.3715782 2.2897091
27.702097 -6.3715782 1.935709
21.402096 -6.3715782 -1.577291
16.802095 -6.3715782 -3.7082911
15.902096 -6.3715782 -4.0812912
15.302096 -6.3715782 -4.0072908
10.902096 -6.3715782 -3.6682911
3.402096 -6.3715782 -2.831291
2.6020961 -6.3715782 -2.7432909
-1.9979039 -6.3715782 -2.5032909
-3.6979041 -6.3715782 -2.4812911
-4.297904 -6.3715782 -2.5292909
-9.297904 -6.3715782 -2.814291
-9.9979038 -6.3715782 -2.8292911
-17.797903 -6.3715782 -3.1312909
-21.197905 -6.3715782 -3.1882911
-21.697905 -6.3715782 -3.241291
-22.297903 -6.3715782 -3.2662909
-24.297903 -6.3715782 -3.2762909
22.102097 -6.4715781 -1.178291
19.802095 -6.4715781 -2.1672909
18.502096 -6.4715781 -2.7672911
18.102097 -6.4715781 -2.9542911
17.402096 -6.4715781 -3.314291
16.202097 -6.4715781 -3.889291
14.802096 -6.4715781 -3.9412911
13.502096 -6.4715781 -3.8522911
11.802096 -6.4715781 -3.7072909
10.402096 -6.4715781 -3.623291
9.3020964 -6.4715781 -3.5452909
-6.5979042 -6.4715781 -2.6882911
-8.6979036 -6.4715781 -2.781291
-13.897904 -6.4715781 -2.9382911
-15.297904 -6.4715781 -3.179291
-15.797904 -6.4715781 -3.205291
-16.497904 -6.4715781 -3.1542909
-18.197905 -6.4715781 -3.087291
-19.097904 -6.4715781 -3.0782909
-20.097904 -6.4715781 -3.080291
-20.797903 -6.4715781 -3.126291
-22.797903 -6.4715781 -3.2792909
28.702097 -6.571578 2.876709
20.402096 -6.571578 -1.837291
15.602096 -6.571578 -3.9992909
14.002096 -6.571578 -3.847291
12.602096 -6.571578 -3.7472911
11.202096 -6.571578 -3.633291
8.9020958 -6.571578 -3.482291
8.1020956 -6.571578 -3.475291
7.0020962 -6.571578 -3.3922911
6.6020961 -6.571578 -3.380291
-4.797904 -6.571578 -2.508291
-5.297904 -6.571578 -2.541291
-5.9979038 -6.571578 -2.6012909
-7.3979039 -6.571578 -2.706291
-11.097904 -6.571578 -2.8122909
-11.497904 -6.571578 -2.8282909
-12.397904 -6.571578 -2.8182909
-13.497904 -6.571578 -2.870291
-16.897903 -6.571578 -3.1082909
-17.297903 -6.571578 -3.0922911
-19.697905 -6.571578 -3.028291
-21.997904 -6.571578 -3.1712911
29.602097 -6.6715779 3.600709
26.802095 -6.6715779 1.6667089
25.802095 -6.6715779 1.022709
18.902096 -6.6715779 -2.409291
17.602097 -6.6715779 -3.025291
17.002096 -6.6715779 -3.3152909
16.402096 -6.6715779 -3.600291
14.502096 -6.6715779 -3.8852911
13.102096 -6.6715779 -3.774291
12.102096 -6.6715779 -3.689291
7.702096 -6.6715779 -3.4172909
5.702096 -6.6715779 -3.271291
4.9020958 -6.6715779 -3.054291
4.202096 -6.6715779 -2.9442911
3.702096 -6.6715779 -2.886291
3.0020959 -6.6715779 -2.765291
-11.897904 -6.6715779 -2.804291
-14.697904 -6.6715779 -3.0422909
-20.497904 -6.6715779 -3.021291
-23.497904 -6.6715779 -3.274291
29.202097 -6.7715778 3.429709
27.702097 -6.7715778 2.3617091
15.802096 -6.7715778 -3.7602911
15.202096 -6.7715778 -3.9402909
13.702096 -6.7715778 -3.804291
10.902096 -6.7715778 -3.5862911
9.702096 -6.7715778 -3.512291
8.6020956 -6.7715778 -3.4602909
6.1020961 -6.7715778 -3.3162911
2.3020959 -6.7715778 -2.6882911
1.302096 -6.7715778 -2.6522911
0.70209599 -6.7715778 -2.6222911
0.102096 -6.7715778 -2.544291
-0.59790403 -6.7715778 -2.5172911
-2.297904 -6.7715778 -2.452291
-3.1979041 -6.7715778 -2.4182911
-10.297904 -6.7715778 -2.7632909
-12.897904 -6.7715778 -2.787291
-16.097904 -6.7715778 -3.0662911
-17.797903 -6.7715778 -2.9972911
-18.397903 -6.7715778 -2.9602909
-18.797903 -6.7715778 -2.965291
-21.697905 -6.7715778 -3.0852909
-22.497904 -6.7715778 -3.1542909
28.302095 -6.8715782 2.922709
19.402096 -6.8715782 -1.9942909
11.602096 -6.8715782 -3.6342909
9.202096 -6.8715782 -3.465291
5.3020959 -6.8715782 -3.1572909
1.802096 -6.8715782 -2.639291
-1.297904 -6.8715782 -2.472291
-6.8979039 -6.8715782 -2.6322911
-9.3979044 -6.8715782 -2.732291
-15.297904 -6.8715782 -3.1082909
-15.697904 -6.8715782 -3.091291
-16.597904 -6.8715782 -2.9942911
-19.397903 -6.8715782 -2.929291
-19.997904 -6.8715782 -2.933291
-21.097904 -6.8715782 -3.0042911
-23.897903 -6.8715782 -3.2362909
29.102097 -6.9715781 3.652709
27.902096 -6.9715781 2.7797091
27.002096 -6.9715781 2.136709
18.402096 -6.9715781 -2.3592911
17.602097 -6.9715781 -2.7462909
17.202097 -6.9715781 -2.933291
16.602097 -6.9715781 -3.2072909
16.102097 -6.9715781 -3.4172909
15.402096 -6.9715781 -3.7232909
15.002096 -6.9715781 -3.8562911
14.102096 -6.9715781 -3.821291
13.302096 -6.9715781 -3.7302909
12.602096 -6.9715781 -3.692291
10.402096 -6.9715781 -3.5302911
10.002096 -6.9715781 -3.498291
8.1020956 -6.9715781 -3.3912909
7.5020962 -6.9715781 -3.3692911
6.702096 -6.9715781 -3.3262911
-3.6979041 -6.9715781 -2.3952911
-5.5979042 -6.9715781 -2.479291
-8.1979036 -6.9715781 -2.682291
-8.6979036 -6.9715781 -2.6932909
-10.897904 -6.9715781 -2.7332909
-11.497904 -6.9715781 -2.752291
-14.197904 -6.9715781 -2.910291
-16.997904 -6.9715781 -2.9402909
-17.397903 -6.9715781 -2.912291
28.602097 -7.071578 3.372709
27.402096 -7.071578 2.5527091
20.602097 -7.071578 -1.288291
14.702096 -7.071578 -3.8332911
9.5020962 -7.071578 -3.452291
7.1020961 -7.071578 -3.3232911
4.8020959 -7.071578 -3.0552909
4.3020959 -7.071578 -2.959291
3.5020959 -7.071578 -2.8352909
-2.6979041 -7.071578 -2.409291
-4.4979038 -7.071578 -2.3842909
-9.797904 -7.071578 -2.699291
-12.497904 -7.071578 -2.751291
-18.097904 -7.071578 -2.843291
-20.397903 -7.071578 -2.8842909
-23.197905 -7.071578 -3.172291
26.302095 -7.1715779 1.928709
25.702097 -7.1715779 1.521709
13.802096 -7.1715779 -3.7492909
12.302096 -7.1715779 -3.6342909
11.102096 -7.1715779 -3.5522909
10.702096 -7.1715779 -3.511291
9.0020962 -7.1715779 -3.4072909
8.6020956 -7.1715779 -3.387291
6.3020959 -7.1715779 -3.275291
5.8020959 -7.1715779 -3.2542911
-0.19790401 -7.1715779 -2.5222909
-1.797904 -7.1715779 -2.423291
-5.0979042 -7.1715779 -2.389291
-6.0979042 -7.1715779 -2.4842911
-7.6979041 -7.1715779 -2.6282909
-10.497904 -7.1715779 -2.6872909
-14.597904 -7.1715779 -2.9442911
-16.297903 -7.1715779 -2.923291
-18.597904 -7.1715779 -2.8032911
-19.097904 -7.1715779 -2.8102911
-21.397903 -7.1715779 -2.923291
-21.897903 -7.1715779 -2.9862909
-22.297903 -7.1715779 -3.0002911
-23.597904 -7.1715779 -3.1802909
28.902096 -7.2715778 3.836709
28.102097 -7.2715778 3.260709
22.802095 -7.2715778 -0.063290998
19.502096 -7.2715778 -1.579291
18.702097 -7.2715778 -1.932291
17.702097 -7.2715778 -2.3792911
17.202097 -7.2715778 -2.6182909
16.802095 -7.2715778 -2.7902911
16.202097 -7.2715778 -3.0692911
15.802096 -7.2715778 -3.2542911
15.402096 -7.2715778 -3.4342909
14.902096 -7.2715778 -3.6242909
14.402096 -7.2715778 -3.762291
13.002096 -7.2715778 -3.6642909
11.702096 -7.2715778 -3.5592909
5.4020958 -7.2715778 -3.2082911
3.902096 -7.2715778 -2.890291
3.0020959 -7.2715778 -2.778291
2.5020959 -7.2715778 -2.683291
1.102096 -7.2715778 -2.5832911
0.60209602 -7.2715778 -2.571291
-15.397904 -7.2715778 -2.9832909
-17.697905 -7.2715778 -2.7922909
-22.697905 -7.2715778 -3.015291
28.602097 -7.3715782 3.6877091
27.802095 -7.3715782 3.1437089
27.402096 -7.3715782 2.8787091
24.402096 -7.3715782 0.90970898
10.102096 -7.3715782 -3.4302909
2.0020959 -7.3715782 -2.617291
-1.297904 -7.3715782 -2.4312911
-9.0979042 -7.3715782 -2.623291
-13.297904 -7.3715782 -2.735291
-13.797904 -7.3715782 -2.801291
-15.797904 -7.3715782 -2.9172909
-16.897903 -7.3715782 -2.8032911
-19.797903 -7.3715782 -2.7662909
-20.697905 -7.3715782 -2.8162911
28.202097 -7.4715781 3.527709
21.202097 -7.4715781 -0.643291
18.102097 -7.4715781 -1.979291
15.102096 -7.4715781 -3.3322909
14.602096 -7.4715781 -3.5302911
14.202096 -7.4715781 -3.673291
13.302096 -7.4715781 -3.6442909
12.602096 -7.4715781 -3.597291
11.402096 -7.4715781 -3.511291
9.6020956 -7.4715781 -3.3922911
7.702096 -7.4715781 -3.321291
6.702096 -7.4715781 -3.251291
5.0020962 -7.4715781 -3.150291
4.5020962 -7.4715781 -3.014291
-0.59790403 -7.4715781 -2.4672911
-3.4979041 -7.4715781 -2.3362911
-10.097904 -7.4715781 -2.637291
-11.097904 -7.4715781 -2.649291
-11.797904 -7.4715781 -2.656291
-12.297904 -7.4715781 -2.6572909
-12.797904 -7.4715781 -2.679291
-18.097904 -7.4715781 -2.7172911
-19.397903 -7.4715781 -2.716291
-20.197905 -7.4715781 -2.741291
-23.397903 -7.4715781 -3.0952909
-23.997904 -7.4715781 -3.047291
28.502096 -7.571578 3.862709
26.702097 -7.571578 2.632709
25.802095 -7.571578 2.0297091
16.402096 -7.571578 -2.6712911
15.902096 -7.571578 -2.886291
15.502096 -7.571578 -3.067291
13.902096 -7.571578 -3.663291
12.102096 -7.571578 -3.541291
10.602096 -7.571578 -3.4372909
8.8020964 -7.571578 -3.334291
6.1020961 -7.571578 -3.216291
5.702096 -7.571578 -3.202291
3.5020959 -7.571578 -2.831291
0.202096 -7.571578 -2.511291
-2.797904 -7.571578 -2.3392911
-5.6979041 -7.571578 -2.347291
-6.297904 -7.571578 -2.3952911
-6.9979038 -7.571578 -2.4412911
-8.297904 -7.571578 -2.5682909
-14.197904 -7.571578 -2.8392911
-14.797904 -7.571578 -2.890291
-16.197905 -7.571578 -2.8262911
-17.297903 -7.571578 -2.7242911
-18.697905 -7.571578 -2.6652911
-21.497904 -7.571578 -2.8352909
27.902096 -7.6715779 3.593709
27.602097 -7.6715779 3.383709
27.202097 -7.6715779 3.113709
26.202097 -7.6715779 2.4247091
13.602096 -7.6715779 -3.627291
12.902096 -7.6715779 -3.5682909
11.002096 -7.6715779 -3.436291
8.1020956 -7.6715779 -3.3022909
7.3020959 -7.6715779 -3.274291
2.8020959 -7.6715779 -2.735291
-2.097904 -7.6715779 -2.3552909
-3.9979041 -7.6715779 -2.291291
-5.1979041 -7.6715779 -2.3022909
-9.5979042 -7.6715779 -2.5892911
-10.597904 -7.6715779 -2.6122911
-15.397904 -7.6715779 -2.817291
-22.597904 -7.6715779 -2.9082911
24.802095 -7.7715778 1.614709
17.302095 -7.7715778 -2.0292909
16.702097 -7.7715778 -2.3152909
15.102096 -7.7715778 -3.0192909
14.702096 -7.7715778 -3.163291
14.302096 -7.7715778 -3.3132911
12.402096 -7.7715778 -3.5072911
9.3020964 -7.7715778 -3.340291
5.3020959 -7.7715778 -3.159291
0.70209599 -7.7715778 -2.511291
-0.997904 -7.7715778 -2.416291
-17.797903 -7.7715778 -2.616291
-19.097904 -7.7715778 -2.591291
-19.797903 -7.7715778 -2.6192911
-21.997904 -7.7715778 -2.8422911
-23.397903 -7.7715778 -2.8752911
-23.897903 -7.7715778 -2.820291
26.502096 -7.8715782 2.873709
18.302095 -7.8715782 -1.511291
15.502096 -7.8715782 -2.728291
13.902096 -7.8715782 -3.3682909
13.302096 -7.8715782 -3.5532911
11.702096 -7.8715782 -3.4512911
10.402096 -7.8715782 -3.3822911
7.702096 -7.8715782 -3.241291
4.9020958 -7.8715782 -3.1082909
3.8020959 -7.8715782 -2.886291
2.3020959 -7.8715782 -2.639291
1.802096 -7.8715782 -2.5732911
1.302096 -7.8715782 -2.5232911
-1.597904 -7.8715782 -2.364291
-7.797904 -7.8715782 -2.419291
-13.797904 -7.8715782 -2.7332909
-15.897904 -7.8715782 -2.7172911
-16.497904 -7.8715782 -2.695291
-18.397903 -7.8715782 -2.5732911
-22.997904 -7.8715782 -2.821291
27.402096 -7.9715781 3.5927091
26.802095 -7.9715781 3.1947091
25.302095 -7.9715781 2.198709
19.202097 -7.9715781 -1.0322911
16.002096 -7.9715781 -2.433291
12.102096 -7.9715781 -3.4602909
10.002096 -7.9715781 -3.3582909
8.8020964 -7.9715781 -3.2932911
6.6020961 -7.9715781 -3.1912911
4.5020962 -7.9715781 -3.037291
3.3020959 -7.9715781 -2.794291
-4.5979042 -7.9715781 -2.218291
-6.5979042 -7.9715781 -2.2892909
-11.297904 -7.9715781 -2.5782909
-11.997904 -7.9715781 -2.5632911
-14.397904 -7.9715781 -2.7492909
-14.897904 -7.9715781 -2.7102909
-20.597904 -7.9715781 -2.6512909
27.802095 -8.071578 4.0047088
26.102097 -8.071578 2.8587091
25.702097 -8.071578 2.5747089
24.002096 -8.071578 1.475709
17.602097 -8.071578 -1.600291
15.002096 -8.071578 -2.7212911
14.602096 -8.071578 -2.8812909
14.202096 -8.071578 -3.041291
13.602096 -8.071578 -3.271291
12.802096 -8.071578 -3.5062909
8.4020958 -8.071578 -3.2492909
7.0020962 -8.071578 -3.2102909
5.8020959 -8.071578 -3.1872909
-0.39790401 -8.071578 -2.439291
-2.4979041 -8.071578 -2.2822909
-8.797904 -8.071578 -2.466291
-10.297904 -8.071578 -2.5432911
-16.997904 -8.071578 -2.600291
-21.097904 -8.071578 -2.6612909
27.502096 -8.1715784 3.9107089
26.902096 -8.1715784 3.517709
23.102097 -8.1715784 1.075709
13.202096 -8.1715784 -3.3152909
11.302096 -8.1715784 -3.3692911
10.902096 -8.1715784 -3.357291
9.6020956 -8.1715784 -3.2962911
9.202096 -8.1715784 -3.2772911
7.4020958 -8.1715784 -3.1912911
4.1020961 -8.1715784 -2.9472909
-3.1979041 -8.1715784 -2.2232909
-5.797904 -8.1715784 -2.2142911
-8.297904 -8.1715784 -2.3752911
-9.297904 -8.1715784 -2.468291
-9.797904 -8.1715784 -2.508291
-12.797904 -8.1715784 -2.5682909
-13.397904 -8.1715784 -2.639291
-15.397904 -8.1715784 -2.597291
-21.797903 -8.1715784 -2.706291
-22.697905 -8.1715784 -2.7572911
-23.397903 -8.1715784 -2.706291
-23.697905 -8.1715784 -2.485291
26.302095 -8.2715778 3.221709
16.602097 -8.2715778 -1.808291
15.402096 -8.2715778 -2.341291
13.802096 -8.2715778 -2.9802909
12.502096 -8.2715778 -3.423291
11.702096 -8.2715778 -3.380291
10.502096 -8.2715778 -3.3262911
8.0020962 -8.2715778 -3.219291
6.3020959 -8.2715778 -3.1572909
5.4020958 -8.2715778 -3.146291
5.0020962 -8.2715778 -3.104291
0.80209601 -8.2715778 -2.4632909
0.102096 -8.2715778 -2.4472909
-1.9979039 -8.2715778 -2.301291
-5.1979041 -8.2715778 -2.1652911
-15.997904 -8.2715778 -2.5532911
-18.097904 -8.2715778 -2.5162909
-19.597904 -8.2715778 -2.508291
-20.097904 -8.2715778 -2.528291
27.202097 -8.3715782 3.9397089
26.502096 -8.3715782 3.4837091
25.902096 -8.3715782 3.0757091
25.502096 -8.3715782 2.804709
25.102097 -8.3715782 2.537709
24.402096 -8.3715782 2.0887091
16.002096 -8.3715782 -1.965291
14.702096 -8.3715782 -2.518291
14.202096 -8.3715782 -2.715291
12.802096 -8.3715782 -3.2492909
10.002096 -8.3715782 -3.281291
4.6020961 -8.3715782 -3.025291
2.3020959 -8.3715782 -2.6242909
-0.79790401 -8.3715782 -2.347291
-7.0979042 -8.3715782 -2.225291
-11.597904 -8.3715782 -2.4772911
-14.197904 -8.3715782 -2.660291
-14.897904 -8.3715782 -2.5692911
-16.397903 -8.3715782 -2.5272911
-17.497904 -8.3715782 -2.4992909
26.702097 -8.4715776 3.7277091
17.902096 -8.4715776 -1.059291
13.202096 -8.4715776 -3.0002911
12.002096 -8.4715776 -3.364291
6.8020959 -8.4715776 -3.1222911
-3.6979041 -8.4715776 -2.1472909
-6.3979039 -8.4715776 -2.156291
-7.797904 -8.4715776 -2.2542911
-10.597904 -8.4715776 -2.4732909
-23.097904 -8.4715776 -2.6522911
27.002096 -8.571578 4.033709
24.702097 -8.571578 2.5197091
15.002096 -8.571578 -2.1872909
13.802096 -8.571578 -2.6522911
11.302096 -8.571578 -3.3032911
10.802096 -8.571578 -3.291291
8.5020962 -8.571578 -3.2002909
7.6020961 -8.571578 -3.1552911
7.202096 -8.571578 -3.1482911
3.5020959 -8.571578 -2.8292911
2.902096 -8.571578 -2.6902909
1.902096 -8.571578 -2.5452909
1.202096 -8.571578 -2.459291
-0.29790401 -8.571578 -2.3782909
-1.297904 -8.571578 -2.298291
-4.3979039 -8.571578 -2.1082909
-15.397904 -8.571578 -2.501291
-16.797903 -8.571578 -2.4272909
-18.497904 -8.571578 -2.4282911
-18.997904 -8.571578 -2.445291
-20.497904 -8.571578 -2.5292909
-22.397903 -8.571578 -2.6882911
26.702097 -8.6715784 3.978709
26.102097 -8.6715784 3.576709
23.902096 -8.6715784 2.1277089
16.902096 -8.6715784 -1.2442909
15.502096 -8.6715784 -1.878291
14.302096 -8.6715784 -2.3482909
12.702096 -8.6715784 -2.956291
11.702096 -8.6715784 -3.2902911
10.402096 -8.6715784 -3.2442911
9.1020956 -8.6715784 -3.1982911
8.1020956 -8.6715784 -3.159291
5.1020961 -8.6715784 -3.094291
-11.197904 -8.6715784 -2.4022911
-13.297904 -8.6715784 -2.508291
-14.497904 -8.6715784 -2.5322909
-16.097904 -8.6715784 -2.3922911
-17.797903 -8.6715784 -2.386291
-21.897903 -8.6715784 -2.6442909
26.802095 -8.7715778 4.2347088
26.302095 -8.7715778 3.8297091
25.402096 -8.7715778 3.231709
25.002096 -8.7715778 2.9577091
23.302095 -8.7715778 1.869709
22.702097 -8.7715778 1.529709
20.902096 -8.7715778 0.574709
16.102097 -8.7715778 -1.487291
13.102096 -8.7715778 -2.696291
12.202096 -8.7715778 -3.0162909
9.9020958 -8.7715778 -3.2272911
9.5020962 -8.7715778 -3.199291
5.9020958 -8.7715778 -3.0922911
5.5020962 -8.7715778 -3.0832911
4.5020962 -8.7715778 -3.0062909
-1.797904 -8.7715778 -2.229291
-5.797904 -8.7715778 -2.0602911
-12.297904 -8.7715778 -2.433291
-12.797904 -8.7715778 -2.4282911
-13.797904 -8.7715778 -2.512291
-14.997904 -8.7715778 -2.4642911
-19.697905 -8.7715778 -2.459291
-20.897903 -8.7715778 -2.5492909
-23.297903 -8.7715778 -2.199291
25.802095 -8.8715782 3.600709
24.302095 -8.8715782 2.6437089
18.902096 -8.8715782 -0.228291
13.502096 -8.8715782 -2.442291
11.102096 -8.8715782 -3.2202909
6.6020961 -8.8715782 -3.0952909
4.1020961 -8.8715782 -2.9182911
2.5020959 -8.8715782 -2.5862911
-3.297904 -8.8715782 -2.114291
-21.397903 -8.8715782 -2.5272911
26.302095 -8.9715776 4.080709
14.802096 -8.9715776 -1.802291
12.402096 -8.9715776 -2.715291
11.802096 -8.9715776 -2.9182911
11.402096 -8.9715776 -3.0632911
8.6020956 -8.9715776 -3.127291
7.202096 -8.9715776 -3.0662911
3.702096 -8.9715776 -2.864291
3.202096 -8.9715776 -2.7492909
1.5020961 -8.9715776 -2.423291
0.30209601 -8.9715776 -2.3352909
-2.6979041 -8.9715776 -2.137291
-5.0979042 -8.9715776 -2.0192909
-6.6979041 -8.9715776 -2.0522909
-7.297904 -8.9715776 -2.110291
-9.0979042 -8.9715776 -2.297291
-9.8979044 -8.9715776 -2.340291
-10.397904 -8.9715776 -2.308291
-11.797904 -8.9715776 -2.304291
-16.497904 -8.9715776 -2.308291
-22.397903 -8.9715776 -2.2862909
26.002096 -9.071578 4.0027089
25.502096 -9.071578 3.669709
25.202097 -9.071578 3.4677091
24.902096 -9.071578 3.2767091
24.502096 -9.071578 3.011709
21.902096 -9.071578 1.440709
12.802096 -9.071578 -2.466291
10.502096 -9.071578 -3.1702909
8.202096 -9.071578 -3.093291
4.8020959 -9.071578 -3.011291
1.0020961 -9.071578 -2.3482909
-8.4979038 -9.071578 -2.2172911
-14.097904 -9.071578 -2.3252909
-15.297904 -9.071578 -2.2762909
-15.897904 -9.071578 -2.258291
-17.097904 -9.071578 -2.2242911
-18.497904 -9.071578 -2.251291
-19.097904 -9.071578 -2.2932911
-20.297903 -9.071578 -2.3582909
-21.797903 -9.071578 -2.3392911
26.202097 -9.1715784 4.317709
24.002096 -9.1715784 2.8247089
23.602097 -9.1715784 2.5717089
13.802096 -9.1715784 -1.946291
10.902096 -9.1715784 -3.0092909
9.4020958 -9.1715784 -3.0992911
9.0020962 -9.1715784 -3.0892911
7.702096 -9.1715784 -3.0522909
5.4020958 -9.1715784 -3.038291
-0.19790401 -9.1715784 -2.2572911
-0.89790398 -9.1715784 -2.2232909
-4.0979042 -9.1715784 -2.0042911
-12.397904 -9.1715784 -2.251291
-13.397904 -9.1715784 -2.320291
-14.697904 -9.1715784 -2.241291
-17.997904 -9.1715784 -2.1472909
-19.697905 -9.1715784 -2.2542911
-20.897903 -9.1715784 -2.3262911
-22.697905 -9.1715784 -1.927291
25.502096 -9.2715778 3.9237089
23.002096 -9.2715778 2.333709
22.402096 -9.2715778 1.9827091
15.102096 -9.2715778 -1.308291
10.102096 -9.2715778 -3.0862911
6.5020962 -9.2715778 -3.015291
6.1020961 -9.2715778 -3.014291
2.202096 -9.2715778 -2.4742911
-1.4979039 -9.2715778 -2.1572909
-6.0979042 -9.2715778 -1.9992909
-7.8979039 -9.2715778 -2.104291
-11.297904 -9.2715778 -2.130291
-22.997904 -9.2715778 -1.312291
25.902096 -9.3715782 4.3717089
25.702097 -9.3715782 4.1747088
24.602097 -9.3715782 3.451709
16.102097 -9.3715782 -0.782291
13.002096 -9.3715782 -2.0422909
12.202096 -9.3715782 -2.340291
11.702096 -9.3715782 -2.502291
11.202096 -9.3715782 -2.6582911
10.402096 -9.3715782 -2.9202909
7.0020962 -9.3715782 -3.0032909
2.8020959 -9.3715782 -2.633291
-9.5979042 -9.3715782 -2.265291
-12.997904 -9.3715782 -2.1582911
-16.797903 -9.3715782 -1.9992909
-20.097904 -9.3715782 -2.1292911
-21.397903 -9.3715782 -2.1082909
-22.097904 -9.3715782 -1.915291
23.902096 -9.4715776 3.1077089
21.502096 -9.4715776 1.741709
20.902096 -9.4715776 1.4267091
14.202096 -9.4715776 -1.429291
9.6020956 -9.4715776 -3.0002911
9.202096 -9.4715776 -3.0202911
8.202096 -9.4715776 -2.9842911
7.4020958 -9.4715776 -2.966291
4.9020958 -9.4715776 -2.969291
4.3020959 -9.4715776 -2.889291
3.702096 -9.4715776 -2.807291
-2.3979039 -9.4715776 -2.057291
-2.9979041 -9.4715776 -2.0262909
-4.5979042 -9.4715776 -1.947291
-6.9979038 -9.4715776 -1.9992909
-10.297904 -9.4715776 -2.1412909
-10.797904 -9.4715776 -2.077291
-11.997904 -9.4715776 -2.1092911
-12.597904 -9.4715776 -2.0362909
-14.197904 -9.4715776 -1.917291
-15.797904 -9.4715776 -2.0042911
-19.497904 -9.4715776 -2.008291
-20.697905 -9.4715776 -2.0962911
25.602097 -9.571578 4.3797088
25.202097 -9.571578 4.080709
24.902096 -9.571578 3.896709
24.302095 -9.571578 3.508709
23.202097 -9.571578 2.8317089
22.502096 -9.571578 2.4447091
20.102097 -9.571578 1.165709
13.402096 -9.571578 -1.623291
10.702096 -9.571578 -2.593291
10.002096 -9.571578 -2.788291
7.8020959 -9.571578 -2.962291
5.3020959 -9.571578 -2.966291
3.202096 -9.571578 -2.706291
0.502096 -9.571578 -2.1932909
-15.297904 -9.571578 -2.008291
-17.997904 -9.571578 -1.825291
-18.997904 -9.571578 -1.866291
-23.497904 -9.571578 -0.83229101
12.402096 -9.6715784 -1.914291
8.6020956 -9.6715784 -2.959291
6.0020962 -9.6715784 -2.9312911
-0.69790399 -9.6715784 -2.1322911
-5.5979042 -9.6715784 -1.941291
-14.697904 -9.6715784 -1.825291
-18.497904 -9.6715784 -1.755291
24.902096 -9.7715778 4.1257091
22.602097 -9.7715778 2.7507091
22.002096 -9.7715778 2.4207089
21.502096 -9.7715778 2.149709
18.902096 -9.7715778 0.79470903
11.602096 -9.7715778 -2.074291
11.002096 -9.7715778 -2.2672911
9.202096 -9.7715778 -2.798291
6.8020959 -9.7715778 -2.886291
6.4020958 -9.7715778 -2.8972909
4.6020961 -9.7715778 -2.8952911
2.202096 -9.7715778 -2.4342909
1.0020961 -9.7715778 -2.209291
0.0020959999 -9.7715778 -2.1012909
-1.297904 -9.7715778 -2.0552909
-1.897904 -9.7715778 -2.0262909
-3.797904 -9.7715778 -1.9712909
-9.297904 -9.7715778 -2.182291
-13.697904 -9.7715778 -1.548291
-16.397903 -9.7715778 -1.783291
-17.397903 -9.7715778 -1.7312911
-19.997904 -9.7715778 -1.794291
25.102097 -9.8715782 4.3187089
24.602097 -9.8715782 4.0067091
24.302095 -9.8715782 3.8017089
24.002096 -9.8715782 3.619709
23.702097 -9.8715782 3.4207089
23.402096 -9.8715782 3.231709
23.002096 -9.8715782 2.994709
21.002096 -9.8715782 1.902709
8.202096 -9.8715782 -2.8982911
3.5020959 -9.8715782 -2.682291
2.702096 -9.8715782 -2.5322909
1.5020961 -9.8715782 -2.251291
-8.3979044 -9.8715782 -2.137291
-11.397904 -9.8715782 -1.798291
-12.997904 -9.8715782 -1.444291
-20.997904 -9.8715782 -1.607291
-22.097904 -9.8715782 -1.252291
24.902096 -9.9715776 4.4707088
22.302095 -9.9715776 2.8087089
14.402096 -9.9715776 -0.77029097
10.202096 -9.9715776 -2.281291
9.5020962 -9.9715776 -2.4832909
7.8020959 -9.9715776 -2.860291
5.3020959 -9.9715776 -2.840291
-10.797904 -9.9715776 -1.917291
-12.397904 -9.9715776 -1.589291
-14.297904 -9.9715776 -1.489291
-15.697904 -9.9715776 -1.766291
-20.497904 -9.9715776 -1.607291
-22.797903 -9.9715776 -0.94629103
24.102097 -10.071578 4.0317092
23.802095 -10.071578 3.8257091
21.802095 -10.071578 2.642709
20.402096 -10.071578 1.922709
19.502096 -10.071578 1.473709
12.102096 -10.071578 -1.535291
9.0020962 -10.071578 -2.5162909
8.5020962 -10.071578 -2.6582911
7.202096 -10.071578 -2.817291
4.9020958 -10.071578 -2.8232911
4.3020959 -10.071578 -2.8152909
3.1020961 -10.071578 -2.6472909
-4.9979038 -10.071578 -1.947291
-7.6979041 -10.071578 -2.080291
-10.197904 -10.071578 -1.969291
-15.097904 -10.071578 -1.5832911
-19.197905 -10.071578 -1.489291
24.402096 -10.171578 4.3527088
23.302095 -10.171578 3.636709
23.002096 -10.171578 3.455709
22.602097 -10.171578 3.2207091
12.802096 -10.171578 -1.163291
11.302096 -10.171578 -1.709291
10.602096 -10.171578 -1.941291
1.902096 -10.171578 -2.3752911
-6.0979042 -10.171578 -2.002291
-17.897903 -10.171578 -1.4352911
23.902096 -10.271578 4.152709
22.202097 -10.271578 3.0917089
21.002096 -10.271578 2.455709
18.102097 -10.271578 1.027709
8.1020956 -10.271578 -2.505291
7.6020961 -10.271578 -2.616291
6.9020958 -10.271578 -2.7172911
3.902096 -10.271578 -2.7762909
2.5020959 -10.271578 -2.4962909
0.70209599 -10.271578 -2.1122911
-0.39790401 -10.271578 -1.9862911
-2.1979041 -10.271578 -1.904291
-6.797904 -10.271578 -2.0432911
-9.1979036 -10.271578 -2.064291
-11.597904 -10.271578 -1.360291
-13.697904 -10.271578 -1.1572911
-19.797903 -10.271578 -1.386291
-21.697905 -10.271578 -1.042291
24.202097 -10.371578 4.4857092
23.502096 -10.371578 4.0177088
22.702097 -10.371578 3.5097089
21.702097 -10.371578 2.9307089
9.8020964 -10.371578 -1.931291
9.202096 -10.371578 -2.093291
6.3020959 -10.371578 -2.7132909
5.9020958 -10.371578 -2.735291
5.5020962 -10.371578 -2.7502911
1.302096 -10.371578 -2.209291
-1.397904 -10.371578 -1.924291
-2.8979039 -10.371578 -1.911291
-3.597904 -10.371578 -1.9072911
-4.297904 -10.371578 -1.917291
-8.6979036 -10.371578 -2.1482911
-9.6979036 -10.371578 -1.896291
-10.897904 -10.371578 -1.518291
-12.497904 -10.371578 -1.039291
-15.697904 -10.371578 -1.385291
-16.597904 -10.371578 -1.426291
-20.697905 -10.371578 -1.183291
23.702097 -10.471578 4.2677088
21.302095 -10.471578 2.8317089
20.502096 -10.471578 2.442709
8.6020956 -10.471578 -2.1322911
7.202096 -10.471578 -2.462291
4.8020959 -10.471578 -2.7342911
-18.797903 -10.471578 -1.262291
23.902096 -10.571578 4.5297089
23.202097 -10.571578 4.0257092
22.902096 -10.571578 3.8657091
19.702097 -10.571578 2.1487091
19.002096 -10.571578 1.822709
16.602097 -10.571578 0.72370899
4.202096 -10.571578 -2.7342911
3.0020959 -10.571578 -2.5862911
0.202096 -10.571578 -2.035291
-7.4979038 -10.571578 -2.0852909
-8.1979036 -10.571578 -2.087291
-10.197904 -10.571578 -1.559291
-14.997904 -10.571578 -1.070291
-17.497904 -10.571578 -1.250291
23.402096 -10.671578 4.3587089
22.502096 -10.671578 3.7557089
22.102097 -10.671578 3.5287089
21.602097 -10.671578 3.2527089
20.802095 -10.671578 2.830709
13.402096 -10.671578 -0.33429101
12.002096 -10.671578 -0.84329098
10.902096 -10.671578 -1.228291
10.102096 -10.671578 -1.4942909
6.6020961 -10.671578 -2.314291
5.1020961 -10.671578 -2.5522909
3.702096 -10.671578 -2.673291
2.1020961 -10.671578 -2.4112909
-6.3979039 -10.671578 -2.0132909
-8.9979038 -10.671578 -1.7952909
23.102097 -10.771578 4.277709
22.702097 -10.771578 3.9897089
8.9020958 -10.771578 -1.699291
8.1020956 -10.771578 -1.893291
7.5020962 -10.771578 -2.015291
6.1020961 -10.771578 -2.2632909
5.6020961 -10.771578 -2.350291
2.6020961 -10.771578 -2.492291
-5.797904 -10.771578 -1.954291
-6.8979039 -10.771578 -1.900291
23.702097 -10.871578 4.810709
23.502096 -10.871578 4.6567092
22.202097 -10.871578 3.816709
21.002096 -10.871578 3.1637089
19.802095 -10.871578 2.5527091
4.702096 -10.871578 -2.3482909
4.202096 -10.871578 -2.4142909
3.3020959 -10.871578 -2.5032909
-0.89790398 -10.871578 -1.961291
-1.897904 -10.871578 -1.8972909
-5.1979041 -10.871578 -1.9302911
-10.897904 -10.871578 -1.058291
-11.697904 -10.871578 -0.53029102
-15.897904 -10.871578 -0.76629102
23.202097 -10.971578 4.5777092
21.802095 -10.971578 3.7277091
20.602097 -10.971578 3.106709
20.202097 -10.971578 2.8947091
19.302095 -10.971578 2.465709
18.802095 -10.971578 2.225709
18.202097 -10.971578 1.934709
17.302095 -10.971578 1.4827091
6.9020958 -10.971578 -1.887291
1.5020961 -10.971578 -2.3132911
1.0020961 -10.971578 -2.2892909
-4.5979042 -10.971578 -1.883291
-14.197904 -10.971578 -0.404291
-17.097904 -10.971578 -0.74829102
-18.197905 -10.971578 -0.80229098
-19.697905 -10.971578 -0.78329098
22.702097 -11.071578 4.3937092
22.302095 -11.071578 4.1247091
9.4020958 -11.071578 -1.161291
5.3020959 -11.071578 -2.0322909
3.702096 -11.071578 -2.215291
3.0020959 -11.071578 -2.262291
0.502096 -11.071578 -2.1752911
-3.9979041 -11.071578 -1.860291
-9.297904 -11.071578 -1.303291
23.202097 -11.171578 4.9037089
23.002096 -11.171578 4.712709
21.102097 -11.171578 3.5927091
7.6020961 -11.171578 -1.490291
6.0020962 -11.171578 -1.797291
1.902096 -11.171578 -2.163291
-0.097903997 -11.171578 -2.0492909
-3.097904 -11.171578 -1.858291
-5.5979042 -11.171578 -1.546291
-6.9979038 -11.171578 -1.546291
-7.9979038 -11.171578 -1.507291
22.502096 -11.271578 4.5287089
22.102097 -11.271578 4.2947092
21.802095 -11.271578 4.1057091
21.402096 -11.271578 3.8817091
20.702097 -11.271578 3.4937091
20.202097 -11.271578 3.238709
16.402096 -11.271578 1.479709
15.402096 -11.271578 1.080709
8.4020958 -11.271578 -1.194291
4.3020959 -11.271578 -1.876291
3.3020959 -11.271578 -1.977291
-1.397904 -11.271578 -1.936291
-2.3979039 -11.271578 -1.839291
-20.697905 -11.271578 -0.40129101
19.702097 -11.371578 3.0977089
19.102097 -11.371578 2.813709
18.302095 -11.371578 2.4447091
10.202096 -11.371578 -0.564291
4.9020958 -11.371578 -1.686291
2.6020961 -11.371578 -1.877291
-0.59790403 -11.371578 -1.891291
-4.4979038 -11.371578 -1.490291
22.602097 -11.471578 4.8357091
22.102097 -11.471578 4.5247092
21.802095 -11.471578 4.343709
21.502096 -11.471578 4.1617088
17.702097 -11.471578 2.2727089
17.102097 -11.471578 2.001709
14.302096 -11.471578 0.907709
6.702096 -11.471578 -1.271291
1.702096 -11.471578 -1.773291
-3.4979041 -11.471578 -1.473291
-6.4979038 -11.471578 -1.2362911
-7.4979038 -11.471578 -1.257291
-8.4979038 -11.471578 -1.080291
-9.8979044 -11.471578 -0.680291
-18.097904 -11.471578 -0.176291
20.902096 -11.571578 3.958709
20.202097 -11.571578 3.600709
18.602097 -11.571578 2.823709
5.5020962 -11.571578 -1.355291
3.902096 -11.571578 -1.551291
-1.897904 -11.571578 -1.524291
-11.997904 -11.571578 0.64970899
22.402096 -11.671578 4.9797091
22.202097 -11.671578 4.8287091
21.802095 -11.671578 4.5927091
21.502096 -11.671578 4.3987088
21.102097 -11.671578 4.1887088
20.502096 -11.671578 3.8657091
19.802095 -11.671578 3.511709
19.002096 -11.671578 3.1477089
16.502096 -11.671578 2.007709
2.902096 -11.671578 -1.490291
2.202096 -11.671578 -1.4992909
1.102096 -11.671578 -1.539291
0.202096 -11.671578 -1.539291
-0.89790398 -11.671578 -1.480291
19.302095 -11.771578 3.4177091
18.102097 -11.771578 2.850709
15.902096 -11.771578 1.855709
7.4020958 -11.771578 -0.75829101
-2.6979041 -11.771578 -1.196291
-5.6979041 -11.771578 -0.97929102
-19.297903 -11.771578 0.053709
22.102097 -11.871578 5.047709
21.802095 -11.871578 4.8277092
21.502096 -11.871578 4.6517091
20.902096 -11.871578 4.317709
20.602097 -11.871578 4.1577091
19.902096 -11.871578 3.8027091
18.602097 -11.871578 3.221709
17.502096 -11.871578 2.679709
17.002096 -11.871578 2.4507091
15.002096 -11.871578 1.624709
13.202096 -11.871578 0.99270898
21.102097 -11.971578 4.5497088
20.102097 -11.971578 4.040709
18.902096 -11.971578 3.4837091
6.1020961 -11.971578 -0.73829103
4.4020958 -11.971578 -0.948291
1.5020961 -11.971578 -1.1342911
-3.797904 -11.971578 -0.82929099
21.702097 -12.071578 5.066709
21.502096 -12.071578 4.909709
20.802095 -12.071578 4.4997091
19.602097 -12.071578 3.9247091
16.302095 -12.071578 2.3917091
0.30209601 -12.071578 -1.013291
-6.4979038 -12.071578 -0.87129098
-14.697904 -12.071578 0.81570899
21.002096 -12.171578 4.7497091
20.502096 -12.171578 4.4737091
19.102097 -12.171578 3.807709
18.402096 -12.171578 3.4937091
17.902096 -12.171578 3.2457089
17.302095 -12.171578 2.9667089
16.702097 -12.171578 2.701709
15.502096 -12.171578 2.1817091
-5.0979042 -12.171578 -0.53129101
21.502096 -12.271578 5.1747088
20.702097 -12.271578 4.7007089
20.202097 -12.271578 4.4407091
19.702097 -12.271578 4.2107091
13.902096 -12.271578 1.690709
10.802096 -12.271578 0.73870897
2.3020959 -12.271578 -0.726291
-9.297904 -12.271578 0.31470901
-12.497904 -12.271578 1.336709
21.102097 -12.371578 5.0467091
20.402096 -12.371578 4.6737089
19.902096 -12.371578 4.428709
19.302095 -12.371578 4.159709
18.602097 -12.371578 3.826709
18.102097 -12.371578 3.6087091
17.602097 -12.371578 3.3687091
15.802096 -12.371578 2.5587089
14.602096 -12.371578 2.070709
11.902096 -12.371578 1.200709
3.1020961 -12.371578 -0.550291
-7.4979038 -12.371578 -0.36629099
-10.697904 -12.371578 1.178709
20.602097 -12.471578 4.9047089
20.102097 -12.471578 4.6547089
19.502096 -12.471578 4.3717089
18.802095 -12.471578 4.047709
17.102097 -12.471578 3.257709
12.702096 -12.471578 1.542709
20.302095 -12.571578 4.9117088
19.702097 -12.571578 4.6167092
19.002096 -12.571578 4.2857089
18.402096 -12.571578 4.014709
17.802095 -12.571578 3.735709
16.602097 -12.571578 3.178709
16.102097 -12.571578 2.9707091
1.0020961 -12.571578 -0.36229101
-0.89790398 -12.571578 -0.30629101
20.502096 -12.671578 5.1517091
20.002096 -12.671578 4.8727088
17.202097 -12.671578 3.5697091
15.502096 -12.671578 2.817709
14.902096 -12.671578 2.5657091
13.902096 -12.671578 2.1847091
13.302096 -12.671578 1.976709
7.1020961 -12.671578 0.38170901
-2.597904 -12.671578 -0.095291004
20.202097 -12.771578 5.1187091
19.702097 -12.771578 4.8747091
19.402096 -12.771578 4.7267089
19.102097 -12.771578 4.5757089
17.902096 -12.771578 4.0037088
17.502096 -12.771578 3.816709
16.802095 -12.771578 3.5037091
14.302096 -12.771578 2.4667089
11.102096 -12.771578 1.462709
-9.5979042 -12.771578 1.385709
20.302095 -12.871578 5.3417091
19.902096 -12.871578 5.0857091
18.702097 -12.871578 4.5117092
18.402096 -12.871578 4.3777089
18.102097 -12.871578 4.2507091
15.702096 -12.871578 3.168709
12.702096 -12.871578 2.024709
12.102096 -12.871578 1.838709
2.1020961 -12.871578 0.093708999
20.002096 -12.971578 5.2957091
19.202097 -12.971578 4.882709
18.902096 -12.971578 4.738709
17.702097 -12.971578 4.178709
16.902096 -12.971578 3.804709
16.402096 -12.971578 3.6087091
16.002096 -12.971578 3.419709
15.302096 -12.971578 3.1287091
14.902096 -12.971578 2.9607091
13.502096 -12.971578 2.4277091
9.702096 -12.971578 1.3427089
8.5020962 -12.971578 1.060709
19.602097 -13.071578 5.2007089
18.502096 -13.071578 4.6737089
18.102097 -13.071578 4.4927092
17.302095 -13.071578 4.1187091
14.302096 -13.071578 2.866709
-3.797904 -13.071578 0.40670899
19.802095 -13.171578 5.4647088
19.102097 -13.171578 5.0797091
18.702097 -13.171578 4.9037089
17.602097 -13.171578 4.3917089
16.902096 -13.171578 4.0767088
16.502096 -13.171578 3.919709
13.802096 -13.171578 2.790709
10.402096 -13.171578 1.7507091
4.0020962 -13.171578 0.59570903
0.30209601 -13.171578 0.42070901
-9.4979038 -13.171578 2.031709
19.502096 -13.271578 5.4237089
19.302095 -13.271578 5.3027091
18.302095 -13.271578 4.8327088
17.102097 -13.271578 4.3117089
15.902096 -13.271578 3.7867091
15.202096 -13.271578 3.484709
13.002096 -13.271578 2.612709
12.402096 -13.271578 2.415709
11.702096 -13.271578 2.212709
11.102096 -13.271578 2.053709
7.3020959 -13.271578 1.216709
5.3020959 -13.271578 0.893709
-1.697904 -13.271578 0.61070901
-5.6979041 -13.271578 0.37270901
-7.797904 -13.271578 1.048709
-8.4979038 -13.271578 1.718709
18.802095 -13.371578 5.2007089
18.502096 -13.371578 5.0597091
18.002096 -13.371578 4.837709
17.702097 -13.371578 4.7007089
16.802095 -13.371578 4.3197088
16.502096 -13.371578 4.1747088
16.202097 -13.371578 4.0527091
15.502096 -13.371578 3.737709
14.802096 -13.371578 3.4397089
13.402096 -13.371578 2.889709
9.0020962 -13.371578 1.674709
3.1020961 -13.371578 0.78470898
-2.6979041 -13.371578 0.73870897
19.102097 -13.471578 5.534709
18.902096 -13.471578 5.4117088
18.202097 -13.471578 5.0627089
17.402096 -13.471578 4.6997089
17.102097 -13.471578 4.5757089
14.202096 -13.471578 3.323709
13.802096 -13.471578 3.1667089
9.702096 -13.471578 1.951709
1.702096 -13.471578 0.838709
18.402096 -13.571578 5.2817092
17.802095 -13.571578 5.007709
16.802095 -13.571578 4.5597091
16.502096 -13.571578 4.428709
16.202097 -13.571578 4.2997088
15.902096 -13.571578 4.1807089
15.602096 -13.571578 4.0457091
14.902096 -13.571578 3.738709
14.502096 -13.571578 3.5787089
12.702096 -13.571578 2.9137089
12.002096 -13.571578 2.6967089
10.802096 -13.571578 2.333709
10.302096 -13.571578 2.205709
7.9020958 -13.571578 1.703709
-0.39790401 -13.571578 0.97170901
-7.797904 -13.571578 1.7787091
18.702097 -13.671578 5.6297088
18.502096 -13.671578 5.4897089
18.002096 -13.671578 5.2267089
17.502096 -13.671578 5.0027089
17.002096 -13.671578 4.784709
15.102096 -13.671578 3.975709
13.902096 -13.671578 3.5037091
13.102096 -13.671578 3.2007091
11.302096 -13.671578 2.613709
8.5020962 -13.671578 1.948709
5.9020958 -13.671578 1.531709
0.80209601 -13.671578 1.088709
-4.4979038 -13.671578 0.98870897
18.302095 -13.771578 5.554709
18.102097 -13.771578 5.4337091
17.702097 -13.771578 5.218709
16.402096 -13.771578 4.6607089
15.902096 -13.771578 4.4497089
15.602096 -13.771578 4.3327088
14.602096 -13.771578 3.9047091
14.302096 -13.771578 3.7917089
13.402096 -13.771578 3.4317091
9.1020956 -13.771578 2.1907091
6.702096 -13.771578 1.783709
-1.197904 -13.771578 1.213709
-3.3979039 -13.771578 1.188709
18.102097 -13.871578 5.6507092
17.802095 -13.871578 5.4137092
17.402096 -13.871578 5.2157092
17.102097 -13.871578 5.093709
16.802095 -13.871578 4.9727092
16.102097 -13.871578 4.6887088
15.302096 -13.871578 4.3517089
15.002096 -13.871578 4.2347088
12.602096 -13.871578 3.2887089
12.102096 -13.871578 3.1077089
9.6020956 -13.871578 2.4147091
7.4020958 -13.871578 2.0227089
4.702096 -13.871578 1.6487091
3.0020959 -13.871578 1.447709
2.3020959 -13.871578 1.413709
-6.4979038 -13.871578 1.552709
17.402096 -13.971578 5.4177089
16.402096 -13.971578 4.9497089
14.702096 -13.971578 4.224709
14.002096 -13.971578 3.941709
12.902096 -13.971578 3.5057089
11.302096 -13.971578 2.981709
10.402096 -13.971578 2.725709
3.902096 -13.971578 1.683709
1.602096 -13.971578 1.5007091
-2.297904 -13.971578 1.442709
-5.3979039 -13.971578 1.313709
-6.797904 -13.971578 2.001709
-7.1979041 -13.971578 2.192709
17.202097 -14.071578 5.4507089
16.902096 -14.071578 5.2947092
16.602097 -14.071578 5.1537089
16.102097 -14.071578 4.9607091
15.602096 -14.071578 4.7237091
15.102096 -14.071578 4.527709
14.402096 -14.071578 4.2347088
13.602096 -14.071578 3.9217091
12.302096 -14.071578 3.428709
11.702096 -14.071578 3.238709
10.802096 -14.071578 2.964709
8.4020958 -14.071578 2.4217091
5.5020962 -14.071578 1.973709
0.30209601 -14.071578 1.5977089
-0.39790401 -14.071578 1.594709
16.302095 -14.171578 5.179709
15.802096 -14.171578 4.9637089
15.302096 -14.171578 4.7347088
14.802096 -14.171578 4.5387092
14.102096 -14.171578 4.2537088
13.002096 -14.171578 3.8217089
9.9020958 -14.171578 2.8617091
9.0020962 -14.171578 2.6537089
6.9020958 -14.171578 2.3197091
2.5020959 -14.171578 1.7967089
-3.097904 -14.171578 1.633709
-4.297904 -14.171578 1.534709
15.502096 -14.271578 4.9607091
15.002096 -14.271578 4.7507091
14.302096 -14.271578 4.4787092
13.702096 -14.271578 4.2427092
13.202096 -14.271578 4.0507088
12.502096 -14.271578 3.7687089
11.102096 -14.271578 3.320709
10.302096 -14.271578 3.0917089
7.6020961 -14.271578 2.5327089
6.1020961 -14.271578 2.3067091
4.9020958 -14.271578 2.214709
4.3020959 -14.271578 2.1437089
3.0020959 -14.271578 1.980709
0.80209601 -14.271578 1.856709
-1.297904 -14.271578 1.803709
-1.9979039 -14.271578 1.808709
-5.8979039 -14.271578 2.1207089
16.602097 -14.371578 5.6017089
16.402096 -14.371578 5.474709
16.102097 -14.371578 5.3477092
15.802096 -14.371578 5.2347088
15.202096 -14.371578 4.974709
13.902096 -14.371578 4.4577088
12.802096 -14.371578 4.033709
11.702096 -14.371578 3.636709
10.702096 -14.371578 3.343709
9.5020962 -14.371578 3.0327089
8.6020956 -14.371578 2.8287089
8.0020962 -14.371578 2.708709
5.4020958 -14.371578 2.399709
1.602096 -14.371578 1.996709
-3.6979041 -14.371578 1.8147089
15.502096 -14.471578 5.2757092
14.902096 -14.471578 5.0157089
14.502096 -14.471578 4.8557091
14.102096 -14.471578 4.6887088
13.402096 -14.471578 4.395709
13.002096 -14.471578 4.2537088
12.402096 -14.471578 4.0237088
12.002096 -14.471578 3.8777089
11.202096 -14.471578 3.6257091
9.0020962 -14.471578 3.050709
7.1020961 -14.471578 2.715709
5.8020959 -14.471578 2.5717089
3.402096 -14.471578 2.3197091
0.0020959999 -14.471578 2.076709
-2.597904 -14.471578 2.0067091
-5.1979041 -14.471578 2.2007091
16.302095 -14.571578 5.7827091
16.002096 -14.571578 5.599709
15.202096 -14.571578 5.2657089
11.502096 -14.571578 3.8477089
10.802096 -14.571578 3.632709
10.302096 -14.571578 3.494709
9.9020958 -14.571578 3.392709
8.202096 -14.571578 3.001709
6.4020958 -14.571578 2.774709
4.702096 -14.571578 2.6047089
4.0020962 -14.571578 2.5127089
2.5020959 -14.571578 2.3117089
0.502096 -14.571578 2.2047091
-0.69790399 -14.571578 2.182709
-3.1979041 -14.571578 2.089709
16.102097 -14.671578 5.8117089
15.702096 -14.671578 5.6077089
15.402096 -14.671578 5.4847088
14.702096 -14.671578 5.185709
14.402096 -14.671578 5.0717092
13.702096 -14.671578 4.784709
13.402096 -14.671578 4.665709
13.102096 -14.671578 4.5397091
12.802096 -14.671578 4.4327092
12.402096 -14.671578 4.2887092
12.102096 -14.671578 4.1887088
11.802096 -14.671578 4.0757089
7.8020959 -14.671578 3.0557089
1.602096 -14.671578 2.360709
0.90209597 -14.671578 2.3287089
-0.29790401 -14.671578 2.3067091
-1.897904 -14.671578 2.284709
-4.4979038 -14.671578 2.392709
16.002096 -14.771578 5.9667091
15.802096 -14.771578 5.8217092
15.202096 -14.771578 5.5587091
14.902096 -14.771578 5.4067092
14.002096 -14.771578 5.0577092
11.202096 -14.771578 4.0307088
10.802096 -14.771578 3.908709
10.402096 -14.771578 3.7927091
10.002096 -14.771578 3.679709
9.5020962 -14.771578 3.5597091
9.1020956 -14.771578 3.4767089
8.702096 -14.771578 3.382709
7.1020961 -14.771578 3.1157091
6.702096 -14.771578 3.1017089
5.0020962 -14.771578 2.9077089
3.0020959 -14.771578 2.6307089
2.1020961 -14.771578 2.521709
0.102096 -14.771578 2.442709
-1.197904 -14.771578 2.3977089
-3.8979039 -14.771578 2.4497089
15.502096 -14.871578 5.8267088
15.002096 -14.871578 5.612709
14.602096 -14.871578 5.4497089
14.302096 -14.871578 5.3227091
13.702096 -14.871578 5.086709
13.402096 -14.871578 4.9717088
13.102096 -14.871578 4.8547091
12.802096 -14.871578 4.7367091
12.502096 -14.871578 4.626709
12.202096 -14.871578 4.5287089
11.902096 -14.871578 4.4267092
11.402096 -14.871578 4.258709
7.5020962 -14.871578 3.2787089
6.1020961 -14.871578 3.1617091
5.4020958 -14.871578 3.100709
4.3020959 -14.871578 2.9697089
3.6020961 -14.871578 2.862709
-0.59790403 -14.871578 2.530709
-2.297904 -14.871578 2.5027089
-2.797904 -14.871578 2.4577091
15.602096 -14.971578 6.0447092
15.302096 -14.971578 5.8907089
14.802096 -14.971578 5.6627092
14.002096 -14.971578 5.3427091
10.902096 -14.971578 4.2227092
9.702096 -14.971578 3.886709
8.3020964 -14.971578 3.5417089
7.9020958 -14.971578 3.4537089
7.1020961 -14.971578 3.4047091
4.702096 -14.971578 3.1547091
2.6020961 -14.971578 2.830709
1.402096 -14.971578 2.715709
-3.597904 -14.971578 2.767709
15.302096 -15.071578 6.1117091
15.002096 -15.071578 5.9307089
14.502096 -15.071578 5.6997089
14.202096 -15.071578 5.573709
13.702096 -15.071578 5.3747091
13.402096 -15.071578 5.2477088
12.802096 -15.071578 4.9967089
12.102096 -15.071578 4.7497091
11.502096 -15.071578 4.554709
11.102096 -15.071578 4.4217091
10.502096 -15.071578 4.2197089
10.002096 -15.071578 4.0967088
9.0020962 -15.071578 3.8457091
8.6020956 -15.071578 3.747709
7.4020958 -15.071578 3.587709
6.702096 -15.071578 3.527709
5.8020959 -15.071578 3.422709
3.902096 -15.071578 3.1667089
3.202096 -15.071578 3.0587089
1.902096 -15.071578 2.8847089
0.90209597 -15.071578 2.807709
0.502096 -15.071578 2.797709
-0.29790401 -15.071578 2.7797091
-1.397904 -15.071578 2.731709
14.702096 -15.171578 5.9767089
14.302096 -15.171578 5.7937088
13.902096 -15.171578 5.6237092
13.502096 -15.171578 5.4607091
12.902096 -15.171578 5.2177091
12.302096 -15.171578 4.981709
11.702096 -15.171578 4.7787089
10.802096 -15.171578 4.4797091
9.3020964 -15.171578 4.0487089
8.1020956 -15.171578 3.7887089
7.702096 -15.171578 3.7637091
7.0020962 -15.171578 3.7107091
6.202096 -15.171578 3.6307089
5.4020958 -15.171578 3.5327089
0.102096 -15.171578 2.9077089
-1.797904 -15.171578 2.8687091
-2.297904 -15.171578 2.9007089
-3.097904 -15.171578 3.043709
14.702096 -15.271578 6.1477089
14.002096 -15.271578 5.817709
13.602096 -15.271578 5.6567092
13.202096 -15.271578 5.501709
13.002096 -15.271578 5.395709
11.902096 -15.271578 4.975709
11.202096 -15.271578 4.737709
10.502096 -15.271578 4.5097089
10.002096 -15.271578 4.3687091
9.6020956 -15.271578 4.271709
8.8020964 -15.271578 4.0657091
6.702096 -15.271578 3.8357091
5.702096 -15.271578 3.7077091
4.9020958 -15.271578 3.599709
3.402096 -15.271578 3.350709
2.6020961 -15.271578 3.2207091
1.402096 -15.271578 3.0727091
-0.89790398 -15.271578 2.9957089
11.502096 -15.371578 4.994709
10.702096 -15.371578 4.725709
10.202096 -15.371578 4.5707092
9.3020964 -15.371578 4.3387089
8.3020964 -15.371578 4.1147089
7.202096 -15.371578 4.0447092
6.0020962 -15.371578 3.8877089
5.3020959 -15.371578 3.8017089
4.4020958 -15.371578 3.6537089
4.0020962 -15.371578 3.589709
3.0020959 -15.371578 3.4337089
1.802096 -15.371578 3.2207091
0.30209601 -15.371578 3.155709
-0.497904 -15.371578 3.129709
-1.697904 -15.371578 3.241709
12.202096 -15.471578 5.4177089
12.002096 -15.471578 5.2947092
11.702096 -15.471578 5.2007089
11.202096 -15.471578 5.034709
10.902096 -15.471578 4.9477091
10.402096 -15.471578 4.7787089
9.9020958 -15.471578 4.6187091
9.6020956 -15.471578 4.540709
9.0020962 -15.471578 4.382709
8.702096 -15.471578 4.3137088
7.8020959 -15.471578 4.2417092
6.9020958 -15.471578 4.158709
6.3020959 -15.471578 4.0847092
5.6020961 -15.471578 4.007709
4.702096 -15.471578 3.843709
3.5020959 -15.471578 3.6417091
2.1020961 -15.471578 3.4337089
0.90209597 -15.471578 3.284709
-0.097903997 -15.471578 3.2667091
11.402096 -15.571578 5.2597089
10.602096 -15.571578 4.9987092
10.102096 -15.571578 4.8337088
9.3020964 -15.571578 4.6097088
8.4020958 -15.571578 4.4397092
8.1020956 -15.571578 4.428709
7.5020962 -15.571578 4.3677092
7.1020961 -15.571578 4.3287091
6.6020961 -15.571578 4.277709
5.9020958 -15.571578 4.1757088
5.0020962 -15.571578 4.0637088
4.202096 -15.571578 3.9367089
3.8020959 -15.571578 3.9177091
3.202096 -15.571578 3.7987089
0.502096 -15.571578 3.488709
-0.79790401 -15.571578 3.497709
11.602096 -15.671578 5.4797091
11.102096 -15.671578 5.350709
10.802096 -15.671578 5.2397089
10.302096 -15.671578 5.0487089
9.702096 -15.671578 4.8527088
8.8020964 -15.671578 4.6287088
7.8020959 -15.671578 4.5377092
6.202096 -15.671578 4.3607092
5.6020961 -15.671578 4.3297091
5.3020959 -15.671578 4.3557091
4.702096 -15.671578 4.1417089
0.80209601 -15.671578 3.6207089
11.602096 -15.771578 5.6847091
11.202096 -15.771578 5.5717092
10.902096 -15.771578 5.4637089
10.402096 -15.771578 5.2617092
10.002096 -15.771578 5.093709
9.1020956 -15.771578 4.8267088
8.3020964 -15.771578 4.7547088
8.0020962 -15.771578 4.7277088
7.5020962 -15.771578 4.6717091
7.0020962 -15.771578 4.626709
6.4020958 -15.771578 4.567709
5.9020958 -15.771578 4.4897089
5.0020962 -15.771578 4.3607092
4.4020958 -15.771578 4.3407092
10.902096 -15.871578 5.6887088
10.702096 -15.871578 5.5947089
10.502096 -15.871578 5.4847088
10.102096 -15.871578 5.2967091
9.6020956 -15.871578 5.1077089
9.3020964 -15.871578 5.0187092
8.702096 -15.871578 4.9437089
7.702096 -15.871578 4.9277091
6.702096 -15.871578 4.7877092
6.0020962 -15.871578 4.737709
5.5020962 -15.871578 4.705709
10.402096 -15.971578 5.6637092
10.202096 -15.971578 5.5287089
9.8020964 -15.971578 5.2967091
8.3020964 -15.971578 5.073709
8.0020962 -15.971578 5.0707092
7.1020961 -15.971578 5.0767088
9.9020958 -16.071577 5.5307088
9.4020958 -16.071577 5.3397088
8.9020958 -16.071577 5.3147092
9.9020958 -16.171577 5.724709
9.5020962 -16.171577 5.554709
9.202096 -16.171577 5.521709
14.302096 -4.8715782 -4.0882912
-1.919904 18.297422 -0.69029099
-0.51990402 17.897423 -0.661291
0.180096 17.897423 -0.95829099
-3.8199041 17.597422 1.271709
7.0800958 17.497421 -0.62329102
0.98009598 17.397423 -0.45129099
3.080096 17.397423 -0.76129103
5.6800961 17.397423 -0.63929099
-2.8199041 17.297422 1.334709
-1.919904 17.297422 0.92870897
-4.9199042 17.197422 1.1667089
-4.3199039 17.197422 1.741709
-3.919904 17.197422 2.136709
2.2800961 17.197422 -0.36629099
-3.419904 17.097422 2.080709
8.2800961 17.097422 -0.65529102
-4.8199039 16.997421 1.811709
6.4800959 16.997421 0.201709
7.6800961 16.997421 0.50470901
-5.5199041 16.897423 1.346709
