# .PCD v0.7 - Point Cloud Data file format
VERSION 0.7
FIELDS x y z
SIZE 4 4 4
TYPE F F F
COUNT 1 1 1
WIDTH 1600
HEIGHT 1
VIEWPOINT 0 0 0 1 0 0 0
POINTS 1600
DATA ascii
-2.47421 28.970644 9.3948784
-2.3742099 28.970644 9.4568777
-2.27421 28.970644 9.4968777
-2.1742101 28.970644 9.5438776
-2.0742099 28.970644 9.6018782
-1.97421 28.970644 9.6418781
-1.87421 28.970644 9.6808777
-1.77421 28.970644 9.7398777
-1.67421 28.970644 9.8128777
-1.57421 28.970644 9.8718777
-1.47421 28.970644 9.9278784
-1.37421 28.970644 9.985878
-1.27421 28.970644 10.037878
-1.17421 28.970644 10.088878
-1.07421 28.970644 10.146878
-0.97421002 28.970644 10.192878
-0.87421 28.970644 10.245878
-0.77420998 28.970644 10.199878
-0.67421001 28.970644 10.102878
-0.57420999 28.970644 10.002878
-0.47420999 28.970644 9.8898783
-0.37421 28.970644 9.7728777
-0.27421001 28.970644 9.650878
-0.17421 28.970644 9.5418777
-0.074210003 28.970644 9.426878
0.02579 28.970644 9.3058777
0.12579 28.970644 9.1658783
0.22578999 28.970644 9.0288782
0.32578999 28.970644 8.8398781
0.42579001 28.970644 8.7018776
0.52578998 28.970644 8.5738783
0.62579 28.970644 8.4318781
0.72579002 28.970644 8.3248777
0.82578999 28.970644 8.2168779
0.92579001 28.970644 8.0698776
1.02579 28.970644 7.972878
1.12579 28.970644 7.880878
1.22579 28.970644 7.7848778
1.32579 28.970644 7.676878
1.42579 28.970644 7.5808778
1.52579 28.970644 7.4498782
1.62579 28.970644 7.3528781
1.72579 28.970644 7.2468781
1.82579 28.970644 7.1348782
1.92579 28.970644 7.0238781
2.02579 28.970644 6.8768778
2.1257901 28.970644 6.742878
2.22579 28.970644 6.6378779
2.8257899 28.970644 5.9688778
3.1257901 28.970644 5.8028779
3.3257899 28.970644 5.5438781
3.4257901 28.970644 5.4218779
3.6257901 28.970644 5.1778779
3.9257901 28.970644 4.8028779
4.22579 28.970644 4.4888778
4.5257902 28.970644 4.2478781
4.9257898 28.970644 3.8748779
5.1257901 28.970644 3.6248779
5.72579 28.970644 3.0358779
8.72579 28.970644 -1.9361219
9.5257902 28.970644 -3.728122
-15.57421 28.870644 4.1588778
-15.47421 28.870644 4.3048782
-15.17421 28.870644 4.6288781
-15.07421 28.870644 4.7578778
-14.57421 28.870644 4.8928781
-14.27421 28.870644 4.9388781
-14.07421 28.870644 4.9698782
-13.77421 28.870644 5.0438781
-13.57421 28.870644 5.0638781
-13.27421 28.870644 5.1448779
-13.07421 28.870644 5.1848779
-12.87421 28.870644 5.2248778
-12.67421 28.870644 5.2928782
-12.47421 28.870644 5.3258781
-12.27421 28.870644 5.366878
-12.07421 28.870644 5.426878
-11.87421 28.870644 5.4668779
-11.67421 28.870644 5.524878
-11.37421 28.870644 5.6148782
-11.07421 28.870644 5.6988778
-10.87421 28.870644 5.7738781
-10.57421 28.870644 5.834878
-10.37421 28.870644 5.9038782
-10.07421 28.870644 6.005878
-9.8742104 28.870644 6.0638781
-9.5742102 28.870644 6.1838779
-9.4742098 28.870644 6.2118778
-9.3742104 28.870644 6.2508779
-9.27421 28.870644 6.2798781
-9.1742096 28.870644 6.3068781
-9.0742102 28.870644 6.367878
-8.9742098 28.870644 6.400878
-8.8742104 28.870644 6.4378781
-8.77421 28.870644 6.4718781
-8.6742096 28.870644 6.5108781
-8.5742102 28.870644 6.5628781
-8.4742098 28.870644 6.597878
-8.3742104 28.870644 6.6418781
-8.27421 28.870644 6.682878
-8.1742096 28.870644 6.728878
-8.0742102 28.870644 6.7678781
-7.9742098 28.870644 6.8158779
-7.8742099 28.870644 6.8468781
-7.77421 28.870644 6.8858781
-7.6742101 28.870644 6.9358778
-7.5742102 28.870644 6.9758778
-7.4742098 28.870644 7.0148778
-7.3742099 28.870644 7.0698781
-7.27421 28.870644 7.1248779
-7.1742101 28.870644 7.169878
-7.0742102 28.870644 7.208878
-6.9742098 28.870644 7.261878
-6.8742099 28.870644 7.2998781
-6.77421 28.870644 7.3468781
-6.6742101 28.870644 7.400878
-6.5742102 28.870644 7.4508781
-6.4742098 28.870644 7.4968781
-6.3742099 28.870644 7.5458779
-6.27421 28.870644 7.5968781
-6.1742101 28.870644 7.6448779
-6.0742102 28.870644 7.6908779
-5.9742098 28.870644 7.7318778
-5.8742099 28.870644 7.781878
-5.77421 28.870644 7.8428779
-5.6742101 28.870644 7.8948779
-5.5742102 28.870644 7.9348779
-5.4742098 28.870644 7.9818778
-5.3742099 28.870644 8.0278778
-5.27421 28.870644 8.0768776
-5.1742101 28.870644 8.1248779
-5.0742102 28.870644 8.1718779
-4.9742098 28.870644 8.2208776
-4.8742099 28.870644 8.2788782
-4.77421 28.870644 8.3198776
-4.6742101 28.870644 8.3708782
-4.5742102 28.870644 8.4158783
-4.4742098 28.870644 8.4628782
-4.3742099 28.870644 8.5198784
-4.27421 28.870644 8.5668783
-4.1742101 28.870644 8.6078777
-4.0742102 28.870644 8.6558781
-3.97421 28.870644 8.7108784
-3.8742099 28.870644 8.7588778
-3.77421 28.870644 8.8078775
-3.6742101 28.870644 8.8518782
-3.5742099 28.870644 8.8988781
-3.47421 28.870644 8.9448776
-3.3742099 28.870644 8.9938784
-3.27421 28.870644 9.0318785
-3.1742101 28.870644 9.0958776
-3.0742099 28.870644 9.1458778
-2.97421 28.870644 9.1898785
-2.8742099 28.870644 9.2308779
-2.77421 28.870644 9.2728777
-2.6742101 28.870644 9.3328781
-2.5742099 28.870644 9.3838778
-2.47421 28.870644 9.4368782
-2.3742099 28.870644 9.4828777
-2.27421 28.870644 9.5318785
-2.1742101 28.870644 9.5858784
-2.0742099 28.870644 9.629878
-1.97421 28.870644 9.6908779
-1.87421 28.870644 9.7468777
-1.77421 28.870644 9.7998781
-1.67421 28.870644 9.8418779
-1.57421 28.870644 9.879878
-1.47421 28.870644 9.9438782
-1.37421 28.870644 10.007878
-1.27421 28.870644 10.068878
-1.17421 28.870644 10.126878
-1.07421 28.870644 10.188878
-0.97421002 28.870644 10.238878
-0.87421 28.870644 10.255878
-0.77420998 28.870644 10.179878
-0.67421001 28.870644 10.078878
-0.57420999 28.870644 9.9748783
-0.47420999 28.870644 9.8748779
-0.37421 28.870644 9.768878
-0.27421001 28.870644 9.6648779
-0.17421 28.870644 9.5248775
-0.074210003 28.870644 9.4048777
0.02579 28.870644 9.2858782
0.12579 28.870644 9.1548777
0.22578999 28.870644 9.0088778
0.32578999 28.870644 8.8778782
0.42579001 28.870644 8.6888781
0.52578998 28.870644 8.5618782
0.62579 28.870644 8.4348783
0.72579002 28.870644 8.3188782
0.82578999 28.870644 8.202878
0.92579001 28.870644 8.0878782
1.02579 28.870644 7.9638782
1.12579 28.870644 7.867878
1.22579 28.870644 7.768878
1.32579 28.870644 7.6718779
1.42579 28.870644 7.5658779
1.52579 28.870644 7.465878
1.62579 28.870644 7.3388782
1.72579 28.870644 7.242878
1.82579 28.870644 7.1418781
1.92579 28.870644 7.0178781
2.02579 28.870644 6.8978782
2.1257901 28.870644 6.775878
2.22579 28.870644 6.6218781
2.3257899 28.870644 6.5338778
2.4257901 28.870644 6.406878
2.52579 28.870644 6.294878
2.72579 28.870644 6.064878
2.9257901 28.870644 5.8918781
3.22579 28.870644 5.708878
3.52579 28.870644 5.3098779
3.72579 28.870644 5.0688782
3.8257899 28.870644 4.9578781
4.1257901 28.870644 4.6018782
4.4257898 28.870644 4.347878
4.72579 28.870644 4.0928779
5.5257902 28.870644 3.2808781
6.72579 28.870644 1.669878
7.1257901 28.870644 1.056878
8.4257898 28.870644 -1.299122
8.9257898 28.870644 -2.1811221
9.1257896 28.870644 -2.6411221
9.22579 28.870644 -2.8841219
9.3257904 28.870644 -3.086122
9.4257898 28.870644 -3.3651221
-15.87421 28.770643 3.719878
-15.77421 28.770643 3.8598781
-15.67421 28.770643 4.0928779
-15.37421 28.770643 4.5238781
-15.27421 28.770643 4.6138778
-14.97421 28.770643 4.8468781
-14.77421 28.770643 4.879878
-14.47421 28.770643 4.9218779
-14.17421 28.770643 4.9758778
-13.87421 28.770643 5.0278778
-13.67421 28.770643 5.0748782
-13.37421 28.770643 5.1288781
-13.17421 28.770643 5.1788778
-12.97421 28.770643 5.2068782
-12.77421 28.770643 5.2508779
-12.57421 28.770643 5.3118782
-12.37421 28.770643 5.360878
-12.17421 28.770643 5.4058781
-11.97421 28.770643 5.459878
-11.77421 28.770643 5.5108781
-11.57421 28.770643 5.5608778
-11.17421 28.770643 5.675878
-10.67421 28.770643 5.8248782
-10.47421 28.770643 5.8918781
-10.27421 28.770643 5.9648781
-10.17421 28.770643 6.0018778
-9.9742098 28.770643 6.0668778
-9.8742104 28.770643 6.1028781
-9.77421 28.770643 6.1348782
-9.5742102 28.770643 6.202878
-9.4742098 28.770643 6.2408781
-9.3742104 28.770643 6.2828779
-9.27421 28.770643 6.3238778
-9.1742096 28.770643 6.3548779
-9.0742102 28.770643 6.406878
-8.9742098 28.770643 6.4448781
-8.8742104 28.770643 6.4768782
-8.77421 28.770643 6.5078778
-8.6742096 28.770643 6.550878
-8.5742102 28.770643 6.5958781
-8.4742098 28.770643 6.6458778
-8.3742104 28.770643 6.669878
-8.27421 28.770643 6.7148781
-8.1742096 28.770643 6.7578778
-8.0742102 28.770643 6.7978778
-7.9742098 28.770643 6.8368778
-7.8742099 28.770643 6.893878
-7.77421 28.770643 6.9368782
-7.6742101 28.770643 6.9698782
-7.5742102 28.770643 7.0148778
-7.4742098 28.770643 7.0698781
-7.3742099 28.770643 7.1068778
-7.27421 28.770643 7.163878
-7.1742101 28.770643 7.2128782
-7.0742102 28.770643 7.2518778
-6.9742098 28.770643 7.2908778
-6.8742099 28.770643 7.333878
-6.77421 28.770643 7.3788781
-6.6742101 28.770643 7.4478779
-6.5742102 28.770643 7.491878
-6.4742098 28.770643 7.5418782
-6.3742099 28.770643 7.590878
-6.27421 28.770643 7.6278782
-6.1742101 28.770643 7.6738782
-6.0742102 28.770643 7.7268782
-5.9742098 28.770643 7.775878
-5.8742099 28.770643 7.8318782
-5.77421 28.770643 7.873878
-5.6742101 28.770643 7.9208779
-5.5742102 28.770643 7.9668779
-5.4742098 28.770643 8.0248775
-5.3742099 28.770643 8.0548782
-5.27421 28.770643 8.1048784
-5.1742101 28.770643 8.1598778
-5.0742102 28.770643 8.2088776
-4.9742098 28.770643 8.2528782
-4.8742099 28.770643 8.3098783
-4.77421 28.770643 8.3528776
-4.6742101 28.770643 8.4068785
-4.5742102 28.770643 8.4538784
-4.4742098 28.770643 8.5038776
-4.3742099 28.770643 8.5428782
-4.27421 28.770643 8.5948782
-4.1742101 28.770643 8.6478777
-4.0742102 28.770643 8.695878
-3.97421 28.770643 8.7418776
-3.8742099 28.770643 8.7778778
-3.77421 28.770643 8.8268776
-3.6742101 28.770643 8.8928776
-3.5742099 28.770643 8.9278784
-3.47421 28.770643 8.9778776
-3.3742099 28.770643 9.018878
-3.27421 28.770643 9.0728779
-3.1742101 28.770643 9.1268778
-3.0742099 28.770643 9.1818781
-2.97421 28.770643 9.228878
-2.8742099 28.770643 9.2718782
-2.77421 28.770643 9.3198776
-2.6742101 28.770643 9.360878
-2.5742099 28.770643 9.4018784
-2.47421 28.770643 9.4648781
-2.3742099 28.770643 9.5198784
-2.27421 28.770643 9.5678778
-2.1742101 28.770643 9.6118784
-2.0742099 28.770643 9.6728783
-1.97421 28.770643 9.7238779
-1.87421 28.770643 9.7818785
-1.77421 28.770643 9.8308783
-1.67421 28.770643 9.8718777
-1.57421 28.770643 9.9218779
-1.47421 28.770643 9.9888783
-1.37421 28.770643 10.045878
-1.27421 28.770643 10.112878
-1.17421 28.770643 10.167878
-1.07421 28.770643 10.225878
-0.97421002 28.770643 10.262878
-0.87421 28.770643 10.253878
-0.77420998 28.770643 10.179878
-0.67421001 28.770643 10.055878
-0.57420999 28.770643 9.9588776
-0.47420999 28.770643 9.8558779
-0.37421 28.770643 9.7528782
-0.27421001 28.770643 9.6418781
-0.17421 28.770643 9.5328779
-0.074210003 28.770643 9.3948784
0.02579 28.770643 9.2798777
0.12579 28.770643 9.1448784
0.22578999 28.770643 9.0108776
0.32578999 28.770643 8.8618784
0.42579001 28.770643 8.7188778
0.52578998 28.770643 8.5628777
0.62579 28.770643 8.4338779
0.72579002 28.770643 8.3048782
0.82578999 28.770643 8.1878777
0.92579001 28.770643 8.0728779
1.02579 28.770643 7.9778781
1.12579 28.770643 7.8568778
1.22579 28.770643 7.7518778
1.32579 28.770643 7.650878
1.42579 28.770643 7.5358782
1.52579 28.770643 7.445878
1.62579 28.770643 7.340878
1.72579 28.770643 7.2198782
1.82579 28.770643 7.1208782
1.92579 28.770643 7.004878
2.02579 28.770643 6.8658781
2.1257901 28.770643 6.754878
2.22579 28.770643 6.6448779
2.3257899 28.770643 6.5038781
2.6257901 28.770643 6.1588778
3.1257901 28.770643 5.8068781
3.3257899 28.770643 5.5928779
3.4257901 28.770643 5.4568782
4.0257902 28.770643 4.7378778
4.3257899 28.770643 4.4388781
4.6257901 28.770643 4.2118778
5.0257902 28.770643 3.8158779
5.3257899 28.770643 3.465878
5.9257898 28.770643 2.840878
6.1257901 28.770643 2.5998781
6.5257902 28.770643 2.0458779
9.0257902 28.770643 -2.3841219
9.5257902 28.770643 -3.7271221
9.6257896 28.770643 -3.8801219
-15.17421 28.670645 4.7338781
-14.87421 28.670645 4.8638778
-14.67421 28.670645 4.8908782
-14.27421 28.670645 4.9608779
-14.07421 28.670645 4.9968781
-13.57421 28.670645 5.084878
-13.07421 28.670645 5.189878
-12.87421 28.670645 5.248878
-12.67421 28.670645 5.2978778
-12.47421 28.670645 5.3428779
-12.27421 28.670645 5.3878779
-11.67421 28.670645 5.5478778
-11.47421 28.670645 5.6028781
-11.27421 28.670645 5.6588778
-10.97421 28.670645 5.7388778
-10.77421 28.670645 5.8038778
-10.57421 28.670645 5.8718781
-10.37421 28.670645 5.9408779
-9.6742096 28.670645 6.1808782
-9.3742104 28.670645 6.288878
-9.27421 28.670645 6.3328781
-9.1742096 28.670645 6.3708782
-9.0742102 28.670645 6.4208779
-8.9742098 28.670645 6.446878
-8.8742104 28.670645 6.4838781
-8.77421 28.670645 6.5278778
-8.6742096 28.670645 6.564878
-8.5742102 28.670645 6.6048779
-8.4742098 28.670645 6.650878
-8.3742104 28.670645 6.6928778
-8.27421 28.670645 6.735878
-8.1742096 28.670645 6.7778778
-8.0742102 28.670645 6.8168778
-7.9742098 28.670645 6.8658781
-7.8742099 28.670645 6.9248781
-7.77421 28.670645 6.959878
-7.6742101 28.670645 6.9958782
-7.5742102 28.670645 7.0478778
-7.4742098 28.670645 7.0918779
-7.3742099 28.670645 7.1328778
-7.27421 28.670645 7.1798782
-7.1742101 28.670645 7.2248778
-7.0742102 28.670645 7.2708778
-6.9742098 28.670645 7.3068781
-6.8742099 28.670645 7.353878
-6.77421 28.670645 7.4038782
-6.6742101 28.670645 7.4608779
-6.5742102 28.670645 7.505878
-6.4742098 28.670645 7.5568781
-6.3742099 28.670645 7.6098781
-6.27421 28.670645 7.6518779
-6.1742101 28.670645 7.696878
-6.0742102 28.670645 7.7498779
-5.9742098 28.670645 7.7978778
-5.8742099 28.670645 7.8458781
-5.77421 28.670645 7.899878
-5.6742101 28.670645 7.9418778
-5.5742102 28.670645 7.985878
-5.4742098 28.670645 8.0338783
-5.3742099 28.670645 8.0828781
-5.27421 28.670645 8.1408777
-5.1742101 28.670645 8.1848783
-5.0742102 28.670645 8.2308779
-4.9742098 28.670645 8.2768784
-4.8742099 28.670645 8.3398781
-4.77421 28.670645 8.3928776
-4.6742101 28.670645 8.4348783
-4.5742102 28.670645 8.4768782
-4.4742098 28.670645 8.5248775
-4.3742099 28.670645 8.570878
-4.27421 28.670645 8.629878
-4.1742101 28.670645 8.6728783
-4.0742102 28.670645 8.7218781
-3.97421 28.670645 8.7658777
-3.8742099 28.670645 8.8118782
-3.77421 28.670645 8.8618784
-3.6742101 28.670645 8.9178782
-3.5742099 28.670645 8.9618778
-3.47421 28.670645 9.011878
-3.3742099 28.670645 9.0628777
-3.27421 28.670645 9.1028776
-3.1742101 28.670645 9.150878
-3.0742099 28.670645 9.2108784
-2.97421 28.670645 9.2608776
-2.8742099 28.670645 9.3048782
-2.77421 28.670645 9.3498783
-2.6742101 28.670645 9.3998775
-2.5742099 28.670645 9.4548779
-2.47421 28.670645 9.5208778
-2.3742099 28.670645 9.5648785
-2.27421 28.670645 9.6068783
-2.1742101 28.670645 9.6478777
-2.0742099 28.670645 9.702878
-1.97421 28.670645 9.7348776
-1.87421 28.670645 9.7958784
-1.77421 28.670645 9.8518782
-1.67421 28.670645 9.9078779
-1.57421 28.670645 9.9728785
-1.47421 28.670645 10.024878
-1.37421 28.670645 10.071878
-1.27421 28.670645 10.137878
-1.17421 28.670645 10.194878
-1.07421 28.670645 10.250878
-0.97421002 28.670645 10.287878
-0.87421 28.670645 10.271878
-0.77420998 28.670645 10.198878
-0.67421001 28.670645 10.052878
-0.57420999 28.670645 9.9558783
-0.47420999 28.670645 9.8508778
-0.37421 28.670645 9.7468777
-0.27421001 28.670645 9.6458778
-0.17421 28.670645 9.5328779
-0.074210003 28.670645 9.3918781
0.02579 28.670645 9.2698784
0.12579 28.670645 9.1478777
0.22578999 28.670645 9.018878
0.32578999 28.670645 8.8838778
0.42579001 28.670645 8.7228785
0.52578998 28.670645 8.5508776
0.62579 28.670645 8.4248781
0.72579002 28.670645 8.3088779
0.82578999 28.670645 8.195878
0.92579001 28.670645 8.0888777
1.02579 28.670645 7.9868779
1.12579 28.670645 7.8628778
1.22579 28.670645 7.7708778
1.32579 28.670645 7.6658778
1.42579 28.670645 7.5628781
1.52579 28.670645 7.4478779
1.62579 28.670645 7.3448782
1.72579 28.670645 7.2258778
1.82579 28.670645 7.1468778
1.92579 28.670645 7.0468779
2.02579 28.670645 6.919878
2.1257901 28.670645 6.7978778
2.22579 28.670645 6.6868782
2.3257899 28.670645 6.5608778
2.52579 28.670645 6.307878
2.6257901 28.670645 6.1978779
2.72579 28.670645 6.1088781
2.8257899 28.670645 6.0138779
3.02579 28.670645 5.8638778
3.22579 28.670645 5.7808781
3.3257899 28.670645 5.6798782
3.4257901 28.670645 5.5418782
3.52579 28.670645 5.3788781
3.6257901 28.670645 5.2298779
3.8257899 28.670645 5.0398779
3.9257901 28.670645 4.9218779
4.1257901 28.670645 4.676878
4.8257899 28.670645 4.0788779
5.22579 28.670645 3.672878
5.6257901 28.670645 3.2538781
8.6257896 28.670645 -1.514122
8.8257904 28.670645 -1.836122
9.22579 28.670645 -2.7491219
9.3257904 28.670645 -2.942122
9.4257898 28.670645 -3.166122
-15.87421 28.570644 3.7348781
-15.57421 28.570644 4.2978778
-15.47421 28.570644 4.4908781
-15.37421 28.570644 4.629878
-15.27421 28.570644 4.7198782
-15.07421 28.570644 4.8388782
-14.77421 28.570644 4.880878
-14.57421 28.570644 4.9188781
-14.37421 28.570644 4.9448781
-14.17421 28.570644 4.9908781
-13.97421 28.570644 5.0278778
-13.77421 28.570644 5.0588779
-13.47421 28.570644 5.1188779
-13.27421 28.570644 5.1658778
-12.97421 28.570644 5.2378778
-12.77421 28.570644 5.2778778
-12.57421 28.570644 5.3238778
-12.37421 28.570644 5.386878
-12.07421 28.570644 5.452878
-11.87421 28.570644 5.505878
-11.57421 28.570644 5.5878782
-11.37421 28.570644 5.629878
-11.17421 28.570644 5.6948781
-10.87421 28.570644 5.7738781
-10.67421 28.570644 5.8488779
-10.47421 28.570644 5.9148779
-10.27421 28.570644 5.972878
-10.17421 28.570644 6.0128779
-10.07421 28.570644 6.050878
-9.9742098 28.570644 6.0898781
-9.8742104 28.570644 6.1288781
-9.4742098 28.570644 6.2768779
-9.3742104 28.570644 6.3188782
-9.27421 28.570644 6.3548779
-9.1742096 28.570644 6.3878779
-9.0742102 28.570644 6.426878
-8.9742098 28.570644 6.465878
-8.8742104 28.570644 6.5218778
-8.77421 28.570644 6.5588779
-8.6742096 28.570644 6.5938778
-8.5742102 28.570644 6.6378779
-8.4742098 28.570644 6.6668782
-8.3742104 28.570644 6.702878
-8.27421 28.570644 6.7638779
-8.1742096 28.570644 6.7978778
-8.0742102 28.570644 6.833878
-7.9742098 28.570644 6.8838782
-7.8742099 28.570644 6.9358778
-7.77421 28.570644 6.9738779
-7.6742101 28.570644 7.025878
-7.5742102 28.570644 7.0768781
-7.4742098 28.570644 7.1128778
-7.3742099 28.570644 7.162878
-7.27421 28.570644 7.189878
-7.1742101 28.570644 7.2478781
-7.0742102 28.570644 7.300878
-6.9742098 28.570644 7.3528781
-6.8742099 28.570644 7.4018779
-6.77421 28.570644 7.4498782
-6.6742101 28.570644 7.4968781
-6.5742102 28.570644 7.5348778
-6.4742098 28.570644 7.5918779
-6.3742099 28.570644 7.6328778
-6.27421 28.570644 7.6748781
-6.1742101 28.570644 7.722878
-6.0742102 28.570644 7.768878
-5.9742098 28.570644 7.8268781
-5.8742099 28.570644 7.8758779
-5.77421 28.570644 7.9228778
-5.6742101 28.570644 7.9678779
-5.5742102 28.570644 8.0058784
-5.4742098 28.570644 8.0588779
-5.3742099 28.570644 8.1018782
-5.27421 28.570644 8.1648779
-5.1742101 28.570644 8.2088776
-5.0742102 28.570644 8.2588778
-4.9742098 28.570644 8.2998781
-4.8742099 28.570644 8.3458776
-4.77421 28.570644 8.3908777
-4.6742101 28.570644 8.4588776
-4.5742102 28.570644 8.5128784
-4.4742098 28.570644 8.5568781
-4.3742099 28.570644 8.6068783
-4.27421 28.570644 8.6458778
-4.1742101 28.570644 8.6938782
-4.0742102 28.570644 8.7478781
-3.97421 28.570644 8.7988777
-3.8742099 28.570644 8.8448782
-3.77421 28.570644 8.8928776
-3.6742101 28.570644 8.9488783
-3.5742099 28.570644 8.9998779
-3.47421 28.570644 9.0428782
-3.3742099 28.570644 9.0878782
-3.27421 28.570644 9.1458778
-3.1742101 28.570644 9.1988783
-3.0742099 28.570644 9.2448778
-2.97421 28.570644 9.294878
-2.8742099 28.570644 9.3438778
-2.77421 28.570644 9.4038782
-2.6742101 28.570644 9.4478779
-2.5742099 28.570644 9.4828777
-2.47421 28.570644 9.5218782
-2.3742099 28.570644 9.5798779
-2.27421 28.570644 9.6408777
-2.1742101 28.570644 9.6948776
-2.0742099 28.570644 9.7388783
-1.97421 28.570644 9.7858782
-1.87421 28.570644 9.8458776
-1.77421 28.570644 9.886878
-1.67421 28.570644 9.9388781
-1.57421 28.570644 9.9908781
-1.47421 28.570644 10.051878
-1.37421 28.570644 10.107878
-1.27421 28.570644 10.153878
-1.17421 28.570644 10.225878
-1.07421 28.570644 10.283878
-0.97421002 28.570644 10.311878
-0.87421 28.570644 10.276878
-0.77420998 28.570644 10.190878
-0.67421001 28.570644 10.079878
-0.57420999 28.570644 9.9548779
-0.47420999 28.570644 9.8518782
-0.37421 28.570644 9.742878
-0.27421001 28.570644 9.6418781
-0.17421 28.570644 9.5348778
-0.074210003 28.570644 9.4188776
0.02579 28.570644 9.2988777
0.12579 28.570644 9.1398783
0.22578999 28.570644 8.9978781
0.32578999 28.570644 8.8558779
0.42579001 28.570644 8.7078781
0.52578998 28.570644 8.570878
0.62579 28.570644 8.4468784
0.72579002 28.570644 8.2858782
0.82578999 28.570644 8.1818781
0.92579001 28.570644 8.0638781
1.02579 28.570644 7.9478779
1.12579 28.570644 7.8568778
1.22579 28.570644 7.748878
1.32579 28.570644 7.6188779
1.42579 28.570644 7.5158782
1.52579 28.570644 7.412878
1.62579 28.570644 7.3168778
1.72579 28.570644 7.2138782
1.82579 28.570644 7.1158781
1.92579 28.570644 6.998878
2.02579 28.570644 6.8708782
2.1257901 28.570644 6.7478781
2.4257901 28.570644 6.439878
3.72579 28.570644 5.1488781
4.0257902 28.570644 4.840878
4.5257902 28.570644 4.3858781
5.4257898 28.570644 3.5128779
6.4257898 28.570644 2.3198781
6.9257898 28.570644 1.451878
7.4257898 28.570644 0.80587798
9.1257896 28.570644 -2.5581219
9.5257902 28.570644 -3.531122
-15.77421 28.470644 3.8488779
-15.67421 28.470644 4.1838779
-15.17421 28.470644 4.820878
-14.97421 28.470644 4.8448782
-14.47421 28.470644 4.9248781
-14.27421 28.470644 4.9738779
-13.67421 28.470644 5.0888782
-13.07421 28.470644 5.2238779
-12.87421 28.470644 5.2668781
-12.67421 28.470644 5.3188782
-12.17421 28.470644 5.4448781
-11.97421 28.470644 5.491878
-11.67421 28.470644 5.5728779
-11.47421 28.470644 5.6318779
-11.27421 28.470644 5.6878781
-11.07421 28.470644 5.7438779
-10.77421 28.470644 5.8368778
-10.57421 28.470644 5.8958778
-10.37421 28.470644 5.9638782
-9.77421 28.470644 6.1748781
-9.6742096 28.470644 6.2078781
-9.5742102 28.470644 6.2448778
-9.3742104 28.470644 6.3228779
-9.27421 28.470644 6.360878
-9.1742096 28.470644 6.399878
-9.0742102 28.470644 6.4408779
-8.9742098 28.470644 6.4908781
-8.8742104 28.470644 6.5488782
-8.77421 28.470644 6.5818782
-8.6742096 28.470644 6.623878
-8.5742102 28.470644 6.6528778
-8.4742098 28.470644 6.6938782
-8.3742104 28.470644 6.741878
-8.27421 28.470644 6.7928782
-8.1742096 28.470644 6.8248782
-8.0742102 28.470644 6.8718781
-7.9742098 28.470644 6.9108782
-7.8742099 28.470644 6.9448781
-7.77421 28.470644 6.9868779
-7.6742101 28.470644 7.0488782
-7.5742102 28.470644 7.0858779
-7.4742098 28.470644 7.1258779
-7.3742099 28.470644 7.1848779
-7.27421 28.470644 7.2318778
-7.1742101 28.470644 7.2738781
-7.0742102 28.470644 7.327878
-6.9742098 28.470644 7.3718781
-6.8742099 28.470644 7.406878
-6.77421 28.470644 7.4608779
-6.6742101 28.470644 7.5078778
-6.5742102 28.470644 7.550878
-6.4742098 28.470644 7.6028781
-6.3742099 28.470644 7.643878
-6.27421 28.470644 7.689878
-6.1742101 28.470644 7.7448778
-6.0742102 28.470644 7.800878
-5.9742098 28.470644 7.8458781
-5.8742099 28.470644 7.8988781
-5.77421 28.470644 7.958878
-5.6742101 28.470644 7.9968781
-5.5742102 28.470644 8.0398779
-5.4742098 28.470644 8.0918779
-5.3742099 28.470644 8.1308784
-5.27421 28.470644 8.1908779
-5.1742101 28.470644 8.2478781
-5.0742102 28.470644 8.301878
-4.9742098 28.470644 8.3368778
-4.8742099 28.470644 8.379878
-4.77421 28.470644 8.4258776
-4.6742101 28.470644 8.4848776
-4.5742102 28.470644 8.5368776
-4.4742098 28.470644 8.5868778
-4.3742099 28.470644 8.6278782
-4.27421 28.470644 8.6588783
-4.1742101 28.470644 8.7108784
-4.0742102 28.470644 8.7838783
-3.97421 28.470644 8.8408775
-3.8742099 28.470644 8.8828783
-3.77421 28.470644 8.926878
-3.6742101 28.470644 8.9688778
-3.5742099 28.470644 9.0298777
-3.47421 28.470644 9.077878
-3.3742099 28.470644 9.1348782
-3.27421 28.470644 9.1808777
-3.1742101 28.470644 9.2328777
-3.0742099 28.470644 9.2728777
-2.97421 28.470644 9.3138781
-2.8742099 28.470644 9.3918781
-2.77421 28.470644 9.4278784
-2.6742101 28.470644 9.4688778
-2.5742099 28.470644 9.5148783
-2.47421 28.470644 9.5638781
-2.3742099 28.470644 9.6078777
-2.27421 28.470644 9.6598778
-2.1742101 28.470644 9.7178783
-2.0742099 28.470644 9.7738781
-1.97421 28.470644 9.8188782
-1.87421 28.470644 9.8688784
-1.77421 28.470644 9.9028778
-1.67421 28.470644 9.9838781
-1.57421 28.470644 10.029878
-1.47421 28.470644 10.071878
-1.37421 28.470644 10.128878
-1.27421 28.470644 10.186878
-1.17421 28.470644 10.251878
-1.07421 28.470644 10.314878
-0.97421002 28.470644 10.323878
-0.87421 28.470644 10.262878
-0.77420998 28.470644 10.167878
-0.67421001 28.470644 10.077878
-0.57420999 28.470644 9.9698782
-0.47420999 28.470644 9.8418779
-0.37421 28.470644 9.7408781
-0.27421001 28.470644 9.636878
-0.17421 28.470644 9.525878
-0.074210003 28.470644 9.4248781
0.02579 28.470644 9.3088779
0.12579 28.470644 9.1568785
0.22578999 28.470644 9.0238781
0.32578999 28.470644 8.8788776
0.42579001 28.470644 8.7398777
0.52578998 28.470644 8.5998783
0.62579 28.470644 8.4618778
0.72579002 28.470644 8.3128777
0.82578999 28.470644 8.1938782
0.92579001 28.470644 8.0858784
1.02579 28.470644 7.9778781
1.12579 28.470644 7.8708782
1.22579 28.470644 7.7728782
1.32579 28.470644 7.656878
1.42579 28.470644 7.544878
1.52579 28.470644 7.4278779
1.62579 28.470644 7.3288779
1.72579 28.470644 7.2478781
1.82579 28.470644 7.156878
1.92579 28.470644 7.0288782
2.02579 28.470644 6.9208779
2.1257901 28.470644 6.7938781
2.22579 28.470644 6.682878
2.3257899 28.470644 6.5768781
2.9257901 28.470644 5.958878
3.1257901 28.470644 5.847878
3.3257899 28.470644 5.6938782
3.4257901 28.470644 5.5658779
3.52579 28.470644 5.4668779
3.6257901 28.470644 5.3328781
3.8257899 28.470644 5.0748782
3.9257901 28.470644 4.9798779
4.22579 28.470644 4.675878
4.3257899 28.470644 4.5588779
4.72579 28.470644 4.2668781
4.9257898 28.470644 4.083878
5.1257901 28.470644 3.8628781
5.6257901 28.470644 3.356878
5.8257899 28.470644 3.150878
6.0257902 28.470644 2.9178779
6.22579 28.470644 2.640878
8.22579 28.470644 -0.450122
8.4257898 28.470644 -1.053122
9.4257898 28.470644 -3.096122
9.5257902 28.470644 -3.4041221
9.6257896 28.470644 -3.744122
-15.97421 28.370644 3.758878
-15.57421 28.370644 4.3918781
-15.47421 28.370644 4.5498781
-15.37421 28.370644 4.7198782
-15.27421 28.370644 4.7838778
-15.07421 28.370644 4.8128781
-14.87421 28.370644 4.8568778
-14.67421 28.370644 4.899878
-14.37421 28.370644 4.945878
-14.07421 28.370644 5.0088782
-13.87421 28.370644 5.050878
-13.57421 28.370644 5.1128778
-13.37421 28.370644 5.1578779
-12.47421 28.370644 5.3658781
-12.27421 28.370644 5.4238782
-11.87421 28.370644 5.5338778
-11.57421 28.370644 5.616878
-11.37421 28.370644 5.6688781
-11.17421 28.370644 5.7298779
-10.87421 28.370644 5.8108778
-10.67421 28.370644 5.8848782
-10.47421 28.370644 5.9508781
-10.27421 28.370644 6.011878
-10.17421 28.370644 6.0408778
-10.07421 28.370644 6.0798779
-9.9742098 28.370644 6.1118779
-9.8742104 28.370644 6.1588778
-9.77421 28.370644 6.196878
-9.6742096 28.370644 6.2308779
-9.5742102 28.370644 6.2718778
-9.4742098 28.370644 6.3058782
-9.3742104 28.370644 6.3518782
-9.27421 28.370644 6.393878
-9.1742096 28.370644 6.4388781
-9.0742102 28.370644 6.472878
-8.9742098 28.370644 6.5068779
-8.8742104 28.370644 6.5498781
-8.77421 28.370644 6.5898781
-8.6742096 28.370644 6.630878
-8.5742102 28.370644 6.669878
-8.4742098 28.370644 6.715878
-8.3742104 28.370644 6.7588782
-8.27421 28.370644 6.794878
-8.1742096 28.370644 6.8488779
-8.0742102 28.370644 6.893878
-7.9742098 28.370644 6.925878
-7.8742099 28.370644 6.9688778
-7.77421 28.370644 7.0138779
-7.6742101 28.370644 7.0628781
-7.5742102 28.370644 7.1158781
-7.4742098 28.370644 7.1748781
-7.3742099 28.370644 7.215878
-7.27421 28.370644 7.255878
-7.1742101 28.370644 7.294878
-7.0742102 28.370644 7.3528781
-6.9742098 28.370644 7.399878
-6.8742099 28.370644 7.4448781
-6.77421 28.370644 7.5018778
-6.6742101 28.370644 7.5608778
-6.5742102 28.370644 7.5988779
-6.4742098 28.370644 7.6358781
-6.3742099 28.370644 7.6888781
-6.27421 28.370644 7.7338781
-6.1742101 28.370644 7.7778778
-6.0742102 28.370644 7.8258781
-5.9742098 28.370644 7.873878
-5.8742099 28.370644 7.9228778
-5.77421 28.370644 7.9748778
-5.6742101 28.370644 8.018878
-5.5742102 28.370644 8.0668783
-5.4742098 28.370644 8.1198778
-5.3742099 28.370644 8.162878
-5.27421 28.370644 8.2198782
-5.1742101 28.370644 8.268878
-5.0742102 28.370644 8.3098783
-4.9742098 28.370644 8.3628778
-4.8742099 28.370644 8.4098778
-4.77421 28.370644 8.4558783
-4.6742101 28.370644 8.5168781
-4.5742102 28.370644 8.5648785
-4.4742098 28.370644 8.6118784
-4.3742099 28.370644 8.6518784
-4.27421 28.370644 8.7078781
-4.1742101 28.370644 8.7698784
-4.0742102 28.370644 8.8158779
-3.97421 28.370644 8.8628778
-3.8742099 28.370644 8.9068785
-3.77421 28.370644 8.9448776
-3.6742101 28.370644 8.9948778
-3.5742099 28.370644 9.0388784
-3.47421 28.370644 9.0868778
-3.3742099 28.370644 9.1418781
-3.27421 28.370644 9.1988783
-3.1742101 28.370644 9.2468777
-3.0742099 28.370644 9.2898779
-2.97421 28.370644 9.3488779
-2.8742099 28.370644 9.412878
-2.77421 28.370644 9.4568777
-2.6742101 28.370644 9.5018778
-2.5742099 28.370644 9.5508776
-2.47421 28.370644 9.5928783
-2.3742099 28.370644 9.6448784
-2.27421 28.370644 9.709878
-2.1742101 28.370644 9.7628784
-2.0742099 28.370644 9.801878
-1.97421 28.370644 9.8398781
-1.87421 28.370644 9.8908777
-1.77421 28.370644 9.9348783
-1.67421 28.370644 10.007878
-1.57421 28.370644 10.055878
-1.47421 28.370644 10.107878
-1.37421 28.370644 10.170878
-1.27421 28.370644 10.221878
-1.17421 28.370644 10.269878
-1.07421 28.370644 10.328878
-0.97421002 28.370644 10.341878
-0.87421 28.370644 10.273878
-0.77420998 28.370644 10.172878
-0.67421001 28.370644 10.071878
-0.57420999 28.370644 9.9728785
-0.47420999 28.370644 9.8418779
-0.37421 28.370644 9.7468777
-0.27421001 28.370644 9.6538782
-0.17421 28.370644 9.5368776
-0.074210003 28.370644 9.4168777
0.02579 28.370644 9.3008776
0.12579 28.370644 9.1548777
0.22578999 28.370644 9.0218782
0.32578999 28.370644 8.8718777
0.42579001 28.370644 8.7298784
0.52578998 28.370644 8.6018782
0.62579 28.370644 8.4568777
0.72579002 28.370644 8.3148785
0.82578999 28.370644 8.2048779
0.92579001 28.370644 8.0808783
1.02579 28.370644 7.9678779
1.12579 28.370644 7.8698778
1.22579 28.370644 7.7728782
1.32579 28.370644 7.6398778
1.42579 28.370644 7.5328779
1.52579 28.370644 7.4248781
1.62579 28.370644 7.3298779
1.72579 28.370644 7.228878
1.92579 28.370644 7.025878
2.02579 28.370644 6.9148779
2.4257901 28.370644 6.4868779
2.52579 28.370644 6.3488779
2.6257901 28.370644 6.2178779
2.72579 28.370644 6.1088781
2.8257899 28.370644 6.0128779
3.22579 28.370644 5.840878
3.72579 28.370644 5.2208781
4.1257901 28.370644 4.7968779
4.4257898 28.370644 4.5298781
4.6257901 28.370644 4.3838782
5.3257899 28.370644 3.685878
6.72579 28.370644 1.991878
8.72579 28.370644 -1.521122
9.0257902 28.370644 -2.037122
9.1257896 28.370644 -2.366122
9.3257904 28.370644 -2.7931221
-15.77421 28.270643 3.889878
-15.67421 28.270643 4.2148781
-14.97421 28.270643 4.8418779
-14.57421 28.270643 4.9118781
-14.27421 28.270643 4.9618778
-13.97421 28.270643 5.0228782
-13.77421 28.270643 5.0658779
-13.17421 28.270643 5.2078781
-12.97421 28.270643 5.255878
-12.77421 28.270643 5.314878
-12.57421 28.270643 5.3648782
-12.37421 28.270643 5.4218779
-12.07421 28.270643 5.5068779
-11.77421 28.270643 5.5808778
-11.47421 28.270643 5.6838779
-11.27421 28.270643 5.7238779
-10.97421 28.270643 5.8178778
-10.77421 28.270643 5.8758779
-10.57421 28.270643 5.9488778
-10.47421 28.270643 5.985878
-10.27421 28.270643 6.0488782
-10.17421 28.270643 6.070878
-10.07421 28.270643 6.117878
-9.9742098 28.270643 6.156878
-9.8742104 28.270643 6.196878
-9.77421 28.270643 6.2368779
-9.5742102 28.270643 6.3048782
-9.4742098 28.270643 6.3268781
-9.3742104 28.270643 6.366878
-9.27421 28.270643 6.4178782
-9.1742096 28.270643 6.4618778
-9.0742102 28.270643 6.492878
-8.9742098 28.270643 6.525878
-8.8742104 28.270643 6.5678778
-8.77421 28.270643 6.610878
-8.6742096 28.270643 6.6478782
-8.5742102 28.270643 6.6888781
-8.4742098 28.270643 6.735878
-8.3742104 28.270643 6.7778778
-8.27421 28.270643 6.8118782
-8.1742096 28.270643 6.8688779
-8.0742102 28.270643 6.9298782
-7.9742098 28.270643 6.9698782
-7.8742099 28.270643 7.004878
-7.77421 28.270643 7.0428782
-7.6742101 28.270643 7.0958781
-7.5742102 28.270643 7.1488781
-7.4742098 28.270643 7.2008781
-7.3742099 28.270643 7.241878
-7.27421 28.270643 7.2858782
-7.1742101 28.270643 7.3498778
-7.0742102 28.270643 7.3838782
-6.9742098 28.270643 7.4228778
-6.8742099 28.270643 7.4898782
-6.77421 28.270643 7.5358782
-6.6742101 28.270643 7.5768781
-6.5742102 28.270643 7.6228781
-6.4742098 28.270643 7.6688781
-6.3742099 28.270643 7.7178779
-6.27421 28.270643 7.7798781
-6.1742101 28.270643 7.8258781
-6.0742102 28.270643 7.8628778
-5.9742098 28.270643 7.913878
-5.8742099 28.270643 7.959878
-5.77421 28.270643 8.0088778
-5.6742101 28.270643 8.0648785
-5.5742102 28.270643 8.1128778
-5.4742098 28.270643 8.1548777
-5.3742099 28.270643 8.2078781
-5.27421 28.270643 8.2568779
-5.1742101 28.270643 8.2938776
-5.0742102 28.270643 8.3468781
-4.9742098 28.270643 8.400878
-4.8742099 28.270643 8.4488783
-4.77421 28.270643 8.4958782
-4.6742101 28.270643 8.5388784
-4.5742102 28.270643 8.5948782
-4.4742098 28.270643 8.6588783
-4.3742099 28.270643 8.7178783
-4.27421 28.270643 8.7578783
-4.1742101 28.270643 8.7918777
-4.0742102 28.270643 8.8418779
-3.97421 28.270643 8.8948784
-3.8742099 28.270643 8.9398785
-3.77421 28.270643 8.9838781
-3.6742101 28.270643 9.0338783
-3.5742099 28.270643 9.0838776
-3.47421 28.270643 9.1268778
-3.3742099 28.270643 9.1888781
-3.27421 28.270643 9.2528782
-3.1742101 28.270643 9.3028784
-3.0742099 28.270643 9.3468781
-2.97421 28.270643 9.3878784
-2.8742099 28.270643 9.4358778
-2.77421 28.270643 9.4918776
-2.6742101 28.270643 9.5478783
-2.5742099 28.270643 9.5988779
-2.47421 28.270643 9.6528778
-2.3742099 28.270643 9.6928778
-2.27421 28.270643 9.7408781
-2.1742101 28.270643 9.7888784
-2.0742099 28.270643 9.8528776
-1.97421 28.270643 9.9018784
-1.87421 28.270643 9.9508781
-1.77421 28.270643 9.9888783
-1.67421 28.270643 10.039878
-1.57421 28.270643 10.098878
-1.47421 28.270643 10.157878
-1.37421 28.270643 10.212878
-1.27421 28.270643 10.266878
-1.17421 28.270643 10.327878
-1.07421 28.270643 10.365878
-0.97421002 28.270643 10.343878
-0.87421 28.270643 10.245878
-0.77420998 28.270643 10.140878
-0.67421001 28.270643 10.043878
-0.57420999 28.270643 9.9468784
-0.47420999 28.270643 9.8398781
-0.37421 28.270643 9.7308779
-0.27421001 28.270643 9.6018782
-0.17421 28.270643 9.5138779
-0.074210003 28.270643 9.3978777
0.02579 28.270643 9.2748775
0.12579 28.270643 9.150878
0.22578999 28.270643 9.025878
0.32578999 28.270643 8.8458776
0.42579001 28.270643 8.7048779
0.52578998 28.270643 8.5758781
0.62579 28.270643 8.4378777
0.72579002 28.270643 8.3238783
0.82578999 28.270643 8.2138777
0.92579001 28.270643 8.0728779
1.02579 28.270643 7.9698782
1.12579 28.270643 7.8548779
1.22579 28.270643 7.761878
1.32579 28.270643 7.6608782
1.42579 28.270643 7.5568781
1.52579 28.270643 7.4408779
1.62579 28.270643 7.327878
1.72579 28.270643 7.2378778
1.82579 28.270643 7.123878
1.92579 28.270643 7.0478778
2.02579 28.270643 6.952878
2.1257901 28.270643 6.8138781
2.22579 28.270643 6.7058778
2.3257899 28.270643 6.6068778
2.52579 28.270643 6.4058781
2.6257901 28.270643 6.2918782
2.72579 28.270643 6.1728778
2.9257901 28.270643 5.9818778
3.02579 28.270643 5.9178782
3.3257899 28.270643 5.7978778
3.4257901 28.270643 5.6908779
3.52579 28.270643 5.5418782
3.6257901 28.270643 5.426878
3.72579 28.270643 5.3088779
3.8257899 28.270643 5.1908779
3.9257901 28.270643 5.0698781
4.0257902 28.270643 4.9678779
4.22579 28.270643 4.7578778
4.5257902 28.270643 4.4978781
4.8257899 28.270643 4.2718778
5.0257902 28.270643 4.0628781
5.5257902 28.270643 3.551878
5.72579 28.270643 3.3258779
5.9257898 28.270643 3.077878
6.4257898 28.270643 2.4908781
7.3257899 28.270643 1.253878
9.5257902 28.270643 -3.254122
9.6257896 28.270643 -3.5981219
-15.87421 28.170645 3.794878
-15.57421 28.170645 4.4388781
-15.47421 28.170645 4.6018782
-15.37421 28.170645 4.7148781
-15.17421 28.170645 4.7908778
-14.77421 28.170645 4.8728781
-14.37421 28.170645 4.945878
-14.07421 28.170645 5.0028782
-13.87421 28.170645 5.0408778
-13.67421 28.170645 5.0878782
-13.47421 28.170645 5.1378779
-13.27421 28.170645 5.2038779
-13.07421 28.170645 5.242878
-12.87421 28.170645 5.2928782
-12.47421 28.170645 5.3948779
-12.27421 28.170645 5.459878
-11.87421 28.170645 5.5638781
-11.67421 28.170645 5.6358781
-11.37421 28.170645 5.7058778
-11.17421 28.170645 5.7718778
-10.87421 28.170645 5.8648782
-10.37421 28.170645 6.0228782
-9.77421 28.170645 6.2448778
-9.6742096 28.170645 6.2808781
-9.5742102 28.170645 6.3158779
-9.4742098 28.170645 6.3528781
-9.3742104 28.170645 6.3928781
-9.27421 28.170645 6.4298782
-9.1742096 28.170645 6.4668779
-9.0742102 28.170645 6.5078778
-8.9742098 28.170645 6.550878
-8.8742104 28.170645 6.6058779
-8.77421 28.170645 6.636878
-8.6742096 28.170645 6.6708779
-8.5742102 28.170645 6.7278781
-8.4742098 28.170645 6.7768779
-8.3742104 28.170645 6.8108778
-8.27421 28.170645 6.8548779
-8.1742096 28.170645 6.8948779
-8.0742102 28.170645 6.9388781
-7.9742098 28.170645 6.9848781
-7.8742099 28.170645 7.0198779
-7.77421 28.170645 7.070878
-7.6742101 28.170645 7.117878
-7.5742102 28.170645 7.1578779
-7.4742098 28.170645 7.2078781
-7.3742099 28.170645 7.2738781
-7.27421 28.170645 7.314878
-7.1742101 28.170645 7.3728781
-7.0742102 28.170645 7.4118781
-6.9742098 28.170645 7.4568782
-6.8742099 28.170645 7.5078778
-6.77421 28.170645 7.5558782
-6.6742101 28.170645 7.5968781
-6.5742102 28.170645 7.643878
-6.4742098 28.170645 7.6798782
-6.3742099 28.170645 7.7318778
-6.27421 28.170645 7.7828779
-6.1742101 28.170645 7.8308778
-6.0742102 28.170645 7.8818779
-5.9742098 28.170645 7.9368782
-5.8742099 28.170645 7.985878
-5.77421 28.170645 8.0318785
-5.6742101 28.170645 8.0798779
-5.5742102 28.170645 8.129878
-5.4742098 28.170645 8.1758776
-5.3742099 28.170645 8.2248783
-5.27421 28.170645 8.268878
-5.1742101 28.170645 8.3158779
-5.0742102 28.170645 8.367878
-4.9742098 28.170645 8.4228783
-4.8742099 28.170645 8.4758778
-4.77421 28.170645 8.5248775
-4.6742101 28.170645 8.5738783
-4.5742102 28.170645 8.6138783
-4.4742098 28.170645 8.6608782
-4.3742099 28.170645 8.7238779
-4.27421 28.170645 8.7668781
-4.1742101 28.170645 8.8138781
-4.0742102 28.170645 8.8618784
-3.97421 28.170645 8.9118776
-3.8742099 28.170645 8.9498777
-3.77421 28.170645 9.011878
-3.6742101 28.170645 9.0658779
-3.5742099 28.170645 9.1058779
-3.47421 28.170645 9.1618776
-3.3742099 28.170645 9.2058783
-3.27421 28.170645 9.2468777
-3.1742101 28.170645 9.3108778
-3.0742099 28.170645 9.3688784
-2.97421 28.170645 9.4048777
-2.8742099 28.170645 9.4538784
-2.77421 28.170645 9.4968777
-2.6742101 28.170645 9.5438776
-2.5742099 28.170645 9.6128778
-2.47421 28.170645 9.6618776
-2.3742099 28.170645 9.6988783
-2.27421 28.170645 9.7388783
-2.1742101 28.170645 9.7978783
-2.0742099 28.170645 9.8508778
-1.97421 28.170645 9.9058781
-1.87421 28.170645 9.9638777
-1.77421 28.170645 10.012878
-1.67421 28.170645 10.057878
-1.57421 28.170645 10.111878
-1.47421 28.170645 10.159878
-1.37421 28.170645 10.229878
-1.27421 28.170645 10.283878
-1.17421 28.170645 10.337878
-1.07421 28.170645 10.386878
-0.97421002 28.170645 10.388878
-0.87421 28.170645 10.309878
-0.77420998 28.170645 10.178878
-0.67421001 28.170645 10.077878
-0.57420999 28.170645 9.9688778
-0.47420999 28.170645 9.8758783
-0.37421 28.170645 9.7778778
-0.27421001 28.170645 9.6648779
-0.17421 28.170645 9.5308781
-0.074210003 28.170645 9.4328775
0.02579 28.170645 9.3188782
0.12579 28.170645 9.2058783
0.22578999 28.170645 9.0828781
0.32578999 28.170645 8.959878
0.42579001 28.170645 8.761878
0.52578998 28.170645 8.6258783
0.62579 28.170645 8.5068779
0.72579002 28.170645 8.3838778
0.82578999 28.170645 8.2528782
0.92579001 28.170645 8.1418781
1.02579 28.170645 8.0088778
1.12579 28.170645 7.9028778
1.22579 28.170645 7.8068781
1.32579 28.170645 7.7048779
1.42579 28.170645 7.6048779
1.52579 28.170645 7.5008779
1.62579 28.170645 7.3858781
1.72579 28.170645 7.281878
1.82579 28.170645 7.1858778
1.92579 28.170645 7.1188779
2.02579 28.170645 7.0288782
2.1257901 28.170645 6.9188781
2.22579 28.170645 6.787878
2.3257899 28.170645 6.6918778
2.4257901 28.170645 6.570878
2.52579 28.170645 6.4738779
2.6257901 28.170645 6.3548779
2.72579 28.170645 6.2478781
2.8257899 28.170645 6.117878
2.9257901 28.170645 6.0278778
3.3257899 28.170645 5.8708782
3.72579 28.170645 5.386878
4.1257901 28.170645 4.925878
4.4257898 28.170645 4.6588778
4.6257901 28.170645 4.4668779
5.22579 28.170645 3.8988781
5.4257898 28.170645 3.692878
6.22579 28.170645 2.847878
8.4257898 28.170645 -0.75512201
8.6257896 28.170645 -1.115122
9.0257902 28.170645 -1.814122
9.1257896 28.170645 -2.0561221
9.22579 28.170645 -2.2991221
9.3257904 28.170645 -2.5331221
9.4257898 28.170645 -2.7851219
9.5257902 28.170645 -3.027122
9.6257896 28.170645 -3.383122
9.72579 28.170645 -3.6911221
-15.67421 28.070644 4.2138782
-15.57421 28.070644 4.5658779
-15.47421 28.070644 4.7008781
-15.27421 28.070644 4.7808781
-15.07421 28.070644 4.8178778
-14.57421 28.070644 4.913878
-14.27421 28.070644 4.9718781
-13.97421 28.070644 5.0408778
-13.77421 28.070644 5.0748782
-13.57421 28.070644 5.123878
-13.17421 28.070644 5.2268782
-12.97421 28.070644 5.2708778
-12.67421 28.070644 5.3518782
-12.37421 28.070644 5.4498782
-12.17421 28.070644 5.5038781
-11.97421 28.070644 5.5688782
-11.77421 28.070644 5.6258779
-11.57421 28.070644 5.6808782
-11.27421 28.070644 5.775878
-11.07421 28.070644 5.8308778
-10.77421 28.070644 5.925878
-10.67421 28.070644 5.9578781
-10.57421 28.070644 5.992878
-10.47421 28.070644 6.0308781
-10.37421 28.070644 6.064878
-10.27421 28.070644 6.090878
-10.17421 28.070644 6.117878
-10.07421 28.070644 6.150878
-9.9742098 28.070644 6.1918778
-9.8742104 28.070644 6.2348781
-9.77421 28.070644 6.2678781
-9.6742096 28.070644 6.3088779
-9.5742102 28.070644 6.3548779
-9.4742098 28.070644 6.3968778
-9.3742104 28.070644 6.4338779
-9.27421 28.070644 6.472878
-9.1742096 28.070644 6.5108781
-9.0742102 28.070644 6.5598779
-8.9742098 28.070644 6.6058779
-8.8742104 28.070644 6.6338782
-8.77421 28.070644 6.6718779
-8.6742096 28.070644 6.708878
-8.5742102 28.070644 6.754878
-8.4742098 28.070644 6.8028779
-8.3742104 28.070644 6.8468781
-8.27421 28.070644 6.893878
-8.1742096 28.070644 6.932878
-8.0742102 28.070644 6.9768782
-7.9742098 28.070644 7.0238781
-7.8742099 28.070644 7.0818782
-7.77421 28.070644 7.1198778
-7.6742101 28.070644 7.1658778
-7.5742102 28.070644 7.208878
-7.4742098 28.070644 7.2598782
-7.3742099 28.070644 7.307878
-7.27421 28.070644 7.3528781
-7.1742101 28.070644 7.4018779
-7.0742102 28.070644 7.4478779
-6.9742098 28.070644 7.4998779
-6.8742099 28.070644 7.5408778
-6.77421 28.070644 7.5918779
-6.6742101 28.070644 7.643878
-6.5742102 28.070644 7.6878781
-6.4742098 28.070644 7.7388778
-6.3742099 28.070644 7.7848778
-6.27421 28.070644 7.8228779
-6.1742101 28.070644 7.8838782
-6.0742102 28.070644 7.9418778
-5.9742098 28.070644 7.972878
-5.8742099 28.070644 8.018878
-5.77421 28.070644 8.0668783
-5.6742101 28.070644 8.1188784
-5.5742102 28.070644 8.169878
-5.4742098 28.070644 8.2198782
-5.3742099 28.070644 8.2648783
-5.27421 28.070644 8.3108778
-5.1742101 28.070644 8.3628778
-5.0742102 28.070644 8.3988781
-4.9742098 28.070644 8.4578781
-4.8742099 28.070644 8.5168781
-4.77421 28.070644 8.5608778
-4.6742101 28.070644 8.603878
-4.5742102 28.070644 8.6668777
-4.4742098 28.070644 8.7088776
-4.3742099 28.070644 8.754878
-4.27421 28.070644 8.7988777
-4.1742101 28.070644 8.8408775
-4.0742102 28.070644 8.8968782
-3.97421 28.070644 8.9348783
-3.8742099 28.070644 8.9888783
-3.77421 28.070644 9.0498781
-3.6742101 28.070644 9.1028776
-3.5742099 28.070644 9.150878
-3.47421 28.070644 9.2148781
-3.3742099 28.070644 9.2488775
-3.27421 28.070644 9.2938776
-3.1742101 28.070644 9.3628778
-3.0742099 28.070644 9.4078779
-2.97421 28.070644 9.4688778
-2.8742099 28.070644 9.5038776
-2.77421 28.070644 9.5548782
-2.6742101 28.070644 9.6018782
-2.5742099 28.070644 9.6598778
-2.47421 28.070644 9.7038784
-2.3742099 28.070644 9.7558784
-2.27421 28.070644 9.8248777
-2.1742101 28.070644 9.8728781
-2.0742099 28.070644 9.9088783
-1.97421 28.070644 9.9498777
-1.87421 28.070644 10.011878
-1.77421 28.070644 10.071878
-1.67421 28.070644 10.120878
-1.57421 28.070644 10.168878
-1.47421 28.070644 10.216878
-1.37421 28.070644 10.282878
-1.27421 28.070644 10.336878
-1.17421 28.070644 10.387878
-1.07421 28.070644 10.419878
-0.97421002 28.070644 10.393878
-0.87421 28.070644 10.304878
-0.77420998 28.070644 10.170878
-0.67421001 28.070644 10.056878
-0.57420999 28.070644 9.9688778
-0.47420999 28.070644 9.8558779
-0.37421 28.070644 9.7458782
-0.27421001 28.070644 9.6408777
-0.17421 28.070644 9.5148783
-0.074210003 28.070644 9.3968782
0.02579 28.070644 9.2858782
0.12579 28.070644 9.1588783
0.22578999 28.070644 9.0348778
0.32578999 28.070644 8.900878
0.42579001 28.070644 8.7088776
0.52578998 28.070644 8.5668783
0.62579 28.070644 8.4428778
0.72579002 28.070644 8.3218784
0.82578999 28.070644 8.2128782
0.92579001 28.070644 8.0878782
1.02579 28.070644 7.9538779
1.12579 28.070644 7.8518782
1.22579 28.070644 7.754878
1.32579 28.070644 7.6578779
1.42579 28.070644 7.5628781
1.52579 28.070644 7.452878
1.62579 28.070644 7.3388782
1.72579 28.070644 7.241878
1.82579 28.070644 7.129878
1.92579 28.070644 7.057878
2.02579 28.070644 6.9578781
2.1257901 28.070644 6.8528781
2.22579 28.070644 6.722878
2.3257899 28.070644 6.6378779
2.4257901 28.070644 6.5398779
2.52579 28.070644 6.4298782
3.1257901 28.070644 5.9048781
3.4257901 28.070644 5.7528782
3.52579 28.070644 5.6408782
3.6257901 28.070644 5.4998779
3.8257899 28.070644 5.2668781
3.9257901 28.070644 5.1468778
4.0257902 28.070644 5.0288782
4.3257899 28.070644 4.7528782
4.72579 28.070644 4.4378781
5.0257902 28.070644 4.1838779
5.6257901 28.070644 3.5528779
6.4257898 28.070644 2.6378779
6.6257901 28.070644 2.3258779
7.1257901 28.070644 1.5868779
7.6257901 28.070644 0.88487798
8.0257902 28.070644 0.290878
-15.87421 27.970644 3.873878
-15.77421 27.970644 4.0128779
-15.37421 27.970644 4.7528782
-15.17421 27.970644 4.794878
-14.87421 27.970644 4.8578782
-14.67421 27.970644 4.8948779
-14.47421 27.970644 4.9228778
-14.17421 27.970644 4.991878
-13.37421 27.970644 5.1688781
-12.77421 27.970644 5.3368778
-12.47421 27.970644 5.425878
-12.27421 27.970644 5.4818778
-12.07421 27.970644 5.5468779
-11.87421 27.970644 5.6028781
-11.67421 27.970644 5.6688781
-11.37421 27.970644 5.7578778
-11.17421 27.970644 5.8288779
-10.97421 27.970644 5.8898778
-10.67421 27.970644 5.991878
-10.47421 27.970644 6.0598779
-10.27421 27.970644 6.1218781
-10.17421 27.970644 6.162878
-10.07421 27.970644 6.2018781
-9.9742098 27.970644 6.2368779
-9.8742104 27.970644 6.2698779
-9.77421 27.970644 6.3158779
-9.6742096 27.970644 6.3658781
-9.5742102 27.970644 6.4018779
-9.4742098 27.970644 6.4248781
-9.3742104 27.970644 6.4568782
-9.27421 27.970644 6.5008779
-9.1742096 27.970644 6.5478778
-9.0742102 27.970644 6.5828781
-8.9742098 27.970644 6.6338782
-8.8742104 27.970644 6.6668782
-8.77421 27.970644 6.7118778
-8.6742096 27.970644 6.754878
-8.5742102 27.970644 6.7898779
-8.4742098 27.970644 6.8378782
-8.3742104 27.970644 6.879878
-8.27421 27.970644 6.9298782
-8.1742096 27.970644 6.9708781
-8.0742102 27.970644 7.0078778
-7.9742098 27.970644 7.0538778
-7.8742099 27.970644 7.0968781
-7.77421 27.970644 7.1518779
-7.6742101 27.970644 7.2018781
-7.5742102 27.970644 7.2508779
-7.4742098 27.970644 7.2928782
-7.3742099 27.970644 7.3358779
-7.27421 27.970644 7.379878
-7.1742101 27.970644 7.4408779
-7.0742102 27.970644 7.4798779
-6.9742098 27.970644 7.5218778
-6.8742099 27.970644 7.5768781
-6.77421 27.970644 7.623878
-6.6742101 27.970644 7.6658778
-6.5742102 27.970644 7.7208781
-6.4742098 27.970644 7.7678781
-6.3742099 27.970644 7.8048782
-6.27421 27.970644 7.8458781
-6.1742101 27.970644 7.8988781
-6.0742102 27.970644 7.9378781
